# .PCD v0.7 - Point Cloud Data file format
VERSION 0.7
FIELDS x y z
SIZE 4 4 4
TYPE F F F
COUNT 1 1 1
WIDTH 110
HEIGHT 1
VIEWPOINT 0 0 0 1 0 0 0
POINTS 110
DATA ascii
-26.349476 4.0381265 -0.33746451
-26.403532 4.1526918 -0.338909
-26.313372 4.2231808 -0.337322
-26.343452 4.3554277 -0.33836001
-26.013678 4.4477043 -0.33205098
-26.042297 4.5579691 -0.33300701
-25.996361 4.634109 -0.33235601
-25.969872 4.7135959 -0.33211201
-26.040688 4.8534412 -0.3340455
-26.615839 3.9220419 -0.19912601
-26.64492 4.0118451 -0.19975799
-26.505669 4.0761948 -0.197833
-26.358913 4.0961561 -0.19569699
-26.233318 4.161191 -0.193983
-26.338581 4.2626328 -0.195787
-26.22047 4.3281908 -0.19419301
-26.21069 4.4111972 -0.194254
-25.964088 4.453846 -0.190704
-26.073074 4.556798 -0.1925845
-26.129108 4.6934791 -0.193772
-26.084724 4.7701702 -0.193321
-26.19939 4.876111 -0.195306
-26.636358 4.0523782 -0.028548
-26.352797 4.0937109 -0.026163001
-26.038166 4.086422 -0.023448
-26.193027 4.1952472 -0.024927
-25.950802 4.2398739 -0.022908
-25.955107 4.3243499 -0.023065001
-25.874369 4.3944111 -0.022473
-25.962891 4.493506 -0.023378
-25.735344 4.5580835 -0.0215245
-25.608061 4.6391902 -0.020558
-25.595327 4.7199759 -0.020576
-25.662159 4.8575497 -0.021367501
-25.694963 4.9893289 -0.021864001
-26.610968 3.7967279 0.131763
-26.581095 3.877723 0.131813
-26.628136 3.969995 0.13164601
-26.322865 4.0093389 0.132468
-26.4821 4.1185808 0.13198499
-26.252304 4.1253061 0.132612
-26.533501 4.2546511 0.13178501
-25.967264 4.248116 0.13334
-25.993252 4.3362098 0.133229
-25.876957 4.4005089 0.133517
-26.006886 4.5065622 0.133112
-25.862589 4.5654192 0.133478
-26.034595 4.6377778 0.132973
-25.645933 4.6520882 0.134028
-25.660702 4.7380462 0.133945
-25.820662 4.8513269 0.133451
-25.807259 4.9327888 0.13344499
-25.715054 4.9990258 0.133662
-26.628265 4.0470352 0.26962399
-26.561485 4.1649818 0.269512
-26.44548 4.1041222 0.269223
-26.415976 4.227098 0.26919901
-25.982201 4.2410178 0.26820499
-25.83963 4.342721 0.26791501
-25.7066 4.4449 0.26764899
-25.730286 4.5531859 0.26774749
-25.816507 4.673151 0.267995
-25.784 4.750948 0.26795301
-25.910456 4.8586001 0.268289
-25.775249 4.9169898 0.268004
-25.677231 4.981854 0.26780799
-25.667339 5.0636582 0.267822
-25.643663 5.1008301 0.26778501
-25.745697 5.2474432 0.26808602
-25.843044 5.394413 0.26837799
-25.994196 5.5114088 0.26877901
-26.206339 5.6857991 0.26934901
-26.148773 5.6302519 0.26919001
-26.258135 4.2509198 0.42151099
-26.161762 4.3197818 0.420834
-26.065218 4.3880811 0.42015699
-26.169592 4.4901161 0.42112401
-26.121861 4.5664802 0.42085001
-26.069971 4.641891 0.420544
-25.89924 4.6536379 0.41920599
-25.925814 4.7424898 0.41954499
-25.88129 4.8184471 0.419303
-26.015394 4.9278669 0.42052799
-25.946753 4.999402 0.420093
-25.94466 5.0835638 0.42020601
-25.863825 5.1522102 0.41967401
-25.989059 5.2194748 0.42076999
-25.882378 5.2827811 0.420028
-26.222134 5.4376211 0.42296201
-26.189262 5.516685 0.422833
-26.095516 5.582685 0.42220399
-26.106598 4.3740268 0.59952998
-26.092728 4.4560161 0.59952998
-25.93428 4.5966969 0.59757602
-25.907347 4.6338859 0.59728003
-25.859617 4.7512398 0.59689552
-26.192852 4.5579572 0.60124701
-26.125805 4.9277549 0.60124701
-26.009855 5.2451048 0.60046303
-26.132715 5.3983021 0.60269803
-26.141659 4.6076822 0.74755102
-26.09556 4.6841578 0.74690002
-26.090137 4.7254939 0.74694097
-26.074432 4.8496418 0.74708295
-26.048376 4.9719019 0.74702197
-26.137449 4.5251842 0.894005
-26.182163 4.617744 0.89555502
-26.217918 4.7303381 0.89697647
-26.076532 4.8528576 0.8939535
-26.124088 4.9892688 0.895814
