# .PCD v0.7 - Point Cloud Data file format
VERSION 0.7
FIELDS x y z
SIZE 4 4 4
TYPE F F F
COUNT 1 1 1
WIDTH 103
HEIGHT 1
VIEWPOINT 0 0 0 1 0 0 0
POINTS 103
DATA ascii
-26.313282 7.9289632 -0.35425401
-26.12571 7.9618812 -0.35079399
-26.131136 8.0533628 -0.351446
-25.962572 8.0906563 -0.34839299
-25.942202 8.1290264 -0.34823
-25.846029 8.1880684 -0.346724
-25.717379 8.236187 -0.34452599
-25.645737 8.3021088 -0.34354901
-25.73732 8.4212971 -0.346073
-25.811325 8.5354748 -0.34823
-25.7313 8.5987196 -0.34709001
-25.861774 8.6876554 -0.35018399
-25.730249 8.7334051 -0.347945
-25.808575 8.8506145 -0.35022399
-25.73909 8.9172049 -0.34932899
-25.743025 9.0092764 -0.350021
-25.880444 9.1489038 -0.35360301
-25.883579 9.2416191 -0.35429499
-26.318272 7.7413821 -0.20709699
-26.294571 7.7793169 -0.206916
-26.354322 7.8870268 -0.20824
-26.22603 7.9385891 -0.206615
-26.153145 8.0063457 -0.205864
-25.819792 8.0823545 -0.20141201
-25.954475 8.2139559 -0.20393901
-25.780853 8.2483635 -0.2016075
-25.85873 8.4076672 -0.203457
-25.976257 8.6265249 -0.206164
-25.955456 8.7328835 -0.206375
-25.712683 8.7639942 -0.20306601
-25.596128 8.8142061 -0.201653
-25.676008 8.9319181 -0.20336699
-25.927145 9.110384 -0.207819
-26.227135 7.7592368 -0.032099001
-26.065441 7.7557902 -0.030741001
-25.979685 7.8191299 -0.030184001
-25.83691 8.2655821 -0.030149
-25.691425 8.486681 -0.02954
-25.770838 8.60291 -0.030515
-25.989958 8.7671566 -0.032777999
-25.665186 8.7471809 -0.030045001
-25.556847 8.7549839 -0.029175
-25.614237 8.8647404 -0.029958
-25.680626 8.9782515 -0.030827999
-25.729586 9.086256 -0.031541999
-26.393993 7.7221651 0.130042
-26.273691 7.7767491 0.13032
-26.141808 7.8272228 0.130631
-26.047112 7.843555 0.130869
-26.022343 7.9253402 0.130869
-25.761 8.2455864 0.13129701
-25.582691 8.2773619 0.131741
-25.670656 8.3948746 0.13140801
-25.843613 8.5411806 0.130825
-25.898251 8.6494884 0.130586
-25.692764 8.6708574 0.131108
-25.654732 8.7703609 0.131119
-25.608753 8.8671427 0.131152
-25.699745 8.9890308 0.130803
-25.675156 9.0710478 0.13079201
-26.848974 7.437386 0.271786
-26.603874 7.5044351 0.27127701
-26.63785 7.604495 0.27141699
-26.567728 7.6747718 0.27130499
-26.551165 7.7604442 0.27132401
-26.400108 7.8062639 0.271016
-26.084288 7.8017669 0.27030599
-25.94755 7.805161 0.27000299
-26.014717 7.9146628 0.27022699
-25.938129 7.9804158 0.27010101
-25.916752 8.0630503 0.27011001
-25.744728 8.3209782 0.26990899
-25.777378 8.4211197 0.27005401
-25.896551 8.6406727 0.27047899
-25.784977 8.7838011 0.27033901
-25.695486 8.7983017 0.270152
-25.688505 8.8861895 0.27020299
-25.671789 8.9708118 0.27023101
-26.864952 7.4466686 0.43180901
-26.772774 7.5571833 0.43133348
-26.799383 7.70117 0.431858
-26.671329 7.7552619 0.430987
-26.694815 7.8530731 0.43138999
-26.670013 7.936892 0.43138999
-26.936996 7.3558388 0.62103796
-26.771868 7.491724 0.61921698
-26.656475 7.4141769 0.61726397
-26.709728 7.5648522 0.61862499
-26.668537 7.643744 0.61835903
-26.730799 7.7526288 0.61969101
-26.842516 7.8766661 0.62179297
-26.892385 7.9832139 0.62294799
-27.002417 8.0621719 0.62484199
-26.86479 7.3509641 0.77412802
-26.868549 7.4427671 0.77469701
-26.882357 7.674336 0.776241
-26.798548 7.7415972 0.77498102
-26.835529 7.843637 0.77628201
-26.889397 7.9510722 0.77794802
-26.790726 7.7451811 0.92919099
-26.654995 7.7966418 0.92619401
-26.639954 7.883182 0.92645198
-26.525063 7.9397979 0.92402399
