# .PCD v0.7 - Point Cloud Data file format
VERSION 0.7
FIELDS x y z
SIZE 4 4 4
TYPE F F F
COUNT 1 1 1
WIDTH 203
HEIGHT 1
VIEWPOINT 0 0 0 1 0 0 0
POINTS 203
DATA ascii
7.075386 6.2798071 -0.47214037
7.0548592 6.3430738 -0.46488804
7.0417719 6.2587295 -0.32205975
6.9454041 6.3063059 -0.31983399
7.0067968 6.3217978 -0.32295001
7.1281724 6.3610144 -0.38447174
7.0956802 6.4686341 -0.38741499
7.1130128 6.4436231 -0.38716999
6.9961052 6.3617411 -0.224778
7.0673709 6.3523998 -0.22688901
7.1575599 6.3493018 -0.27905703
6.9763851 6.4040413 -0.2254115
7.1288238 6.4383297 -0.28097034
7.062192 6.5438328 -0.23255999
6.9377699 6.2921958 -0.105045
7.0775928 6.298069 -0.10861
7.115355 6.2916451 -0.109402
7.0796585 6.3591452 -0.142699
7.1402049 6.3425817 -0.1602695
7.0818491 6.4314981 -0.160879
7.1897192 6.478488 -0.115344
7.1612053 6.4518938 -0.060495
7.2415266 6.4220037 -0.061594665
7.1690912 6.5206552 -0.061923999
6.9268942 6.990108 -0.066049002
7.0787535 6.4228773 0.041088998
6.7804623 6.6757193 0.062399998
6.7449312 6.8638601 0.060775999
6.8319826 6.8658543 0.059834003
6.8339329 6.9547105 0.032736
6.5959549 6.349606 0.126268
6.6390538 6.3509078 0.12599
7.0636044 6.3831973 0.1230915
7.1227536 6.3457918 0.122926
6.5731649 6.4076252 0.126059
6.6820307 6.4432812 0.180609
7.0896249 6.406673 0.122787
7.1483135 6.4326711 0.179682
7.2038689 6.4216218 0.179588
7.1476431 6.5346408 0.179493
7.213913 6.5539689 0.17932101
6.6356077 6.6657877 0.18026799
6.7469206 6.6866074 0.1516595
6.6944618 6.7890849 0.17991
6.7453032 6.7413778 0.122952
6.9318652 6.7917132 0.17943799
6.795609 6.8985829 0.121673
6.8839688 6.8516002 0.179416
6.9062352 6.8092308 0.179454
6.7738943 6.9562168 0.12144633
6.8497171 6.9097819 0.121272
6.8532333 7.0557036 0.15955701
6.8602405 7.1356812 0.17889901
6.5467639 6.3839521 0.22809
6.6655712 6.3478022 0.281333
6.7266769 6.3410835 0.25502074
7.0495629 6.3365703 0.22887221
6.5337858 6.4314747 0.228146
6.6186342 6.413312 0.228258
6.723979 6.4740949 0.228534
7.1428499 6.4491615 0.28470924
7.2164369 6.4135609 0.28495899
6.5772047 6.5454111 0.22840551
6.6589308 6.5444942 0.28239599
6.7624149 6.5634818 0.28310001
6.8322196 6.5406065 0.24699734
6.5717373 6.6537571 0.228576
6.723917 6.6295719 0.28325099
6.5893092 6.7766929 0.228809
6.7309985 6.7779703 0.25657299
6.8177071 6.7863693 0.28467649
6.728137 6.8427868 0.27070075
6.7390938 6.9479489 0.257247
6.7660189 7.02316 0.22950999
6.677238 7.1076221 0.22950999
6.7700281 7.1884384 0.28673199
6.852354 7.1737561 0.28710201
6.6557875 7.2652712 0.22974551
6.7312894 7.2566257 0.27266127
6.8407698 7.2068791 0.287231
6.6464539 7.3238692 0.22983199
6.7179332 7.3269439 0.28726301
6.788898 7.4517422 0.28839201
6.7244978 7.5701857 0.28875399
6.833715 7.548821 0.28921399
6.7905731 7.6486888 0.230621
6.8399572 7.6555929 0.23071
6.7333131 7.7786751 0.23076101
6.8398924 7.7881861 0.26084599
6.9567928 7.7098498 0.29084101
6.8529358 7.872242 0.29126567
6.6340094 6.1582127 0.3416627
6.6202192 6.2558403 0.34250101
6.7599058 6.2599535 0.39531949
6.9769478 6.2939749 0.346764
7.030458 6.2822523 0.347238
6.5604091 6.3836851 0.34317201
6.7519269 6.352036 0.396478
6.8097262 6.366405 0.39753401
6.9709082 6.3482656 0.3472375
6.5492058 6.4532719 0.34377402
6.6654291 6.4391603 0.38356799
6.7300601 6.4290018 0.37139601
6.8202801 6.457305 0.39895701
6.5471048 6.594234 0.34522501
6.6709499 6.5173988 0.397616
6.7073221 6.5945559 0.399241
6.4971228 6.6266928 0.345047
6.5410118 6.6239777 0.38434526
6.6282806 6.6374407 0.37271899
6.7234769 6.6865659 0.348037
6.4721613 6.7474895 0.38504675
6.5403872 6.740664 0.39895701
6.517652 6.8377018 0.34750399
6.6464787 6.8636651 0.349103
6.7292151 6.8836269 0.350169
6.5467153 6.9602165 0.34911776
6.4623141 7.1293879 0.35010999
6.5366154 7.1356063 0.35091865
6.6016531 7.1237478 0.35144201
6.5170755 7.2577267 0.35206351
6.5298767 7.3642311 0.35336649
6.561327 7.4698491 0.354846
6.7200351 7.6737871 0.35866499
6.674314 7.718874 0.35872501
6.7459259 7.752058 0.35979
6.8114009 6.0406809 0.443773
6.4998841 6.2570491 0.44165501
6.5032368 6.2996278 0.44248101
6.9698 6.298377 0.45126501
7.0270324 6.2900352 0.4522205
6.6548214 6.3452983 0.44612402
6.8697948 6.3867688 0.450903
6.9422493 6.3331642 0.45134199
7.0695801 6.3780532 0.40158471
6.5666838 6.4007311 0.44547799
6.8482351 6.4069571 0.45085099
6.9794154 6.427247 0.453693
7.0527921 6.4303241 0.40204501
7.1781459 6.4017859 0.40354899
6.4387779 6.5993972 0.44677001
6.6643138 6.5823555 0.45056725
6.9155312 6.551312 0.45467499
7.1192689 6.532443 0.404443
6.3874302 6.6504784 0.44679552
6.4305768 6.6324749 0.44723499
6.5302877 6.6300149 0.44899151
6.6383729 6.6552529 0.45142001
6.4341331 6.7621222 0.44971499
6.6159768 6.746388 0.42633149
6.7448931 6.7157898 0.401517
6.4500561 6.8214211 0.45111001
6.6237249 6.9793882 0.40362999
6.6523829 7.054122 0.40513399
6.645505 7.1589885 0.40659648
6.6091032 7.2559471 0.40754503
6.7347765 7.2634888 0.4277837
6.7267289 7.3856382 0.46666199
6.8880329 7.3509402 0.46883199
6.948226 7.3684449 0.470227
6.584403 7.461503 0.428792
6.6517634 7.4617953 0.45574698
6.715961 7.4441233 0.4396545
6.805943 7.448688 0.46924499
6.4839082 7.512763 0.464957
6.5693026 7.5392556 0.46692002
6.9479566 7.5081596 0.47286201
6.6914492 7.65593 0.41472399
6.749989 7.6257439 0.41504899
6.7575698 7.781312 0.417528
6.7539339 7.826776 0.41817799
6.9433346 6.0847425 0.504179
6.8700438 6.1424341 0.50364667
6.7639761 6.2217479 0.502837
6.8668718 6.2276487 0.50539398
6.7425737 6.3605471 0.5053615
6.8229399 6.3361125 0.50670397
6.9792171 6.3803959 0.511338
6.7435231 6.4422932 0.50718349
6.9290409 6.4963822 0.51267999
6.7437401 6.5242696 0.50900501
6.7891631 6.6937771 0.51383102
6.8272462 6.6892519 0.51459801
6.5635242 6.7831507 0.51078403
6.7491074 6.759593 0.51440597
6.7904358 6.8875589 0.51824099
6.8813181 6.8280139 0.51894403
6.9689579 6.8073778 0.52047801
6.6374083 6.9579921 0.51645148
6.8357301 6.9775748 0.52130902
6.9035792 6.9809141 0.52290702
6.6560068 7.3742909 0.52661401
6.7436352 7.366219 0.5283075
6.6807179 7.4488611 0.52891499
6.7220249 7.4008079 0.52865899
6.8340092 7.4066949 0.53121603
6.9881711 7.4324732 0.53517902
7.0402579 7.4410501 0.53652102
6.680006 7.5551691 0.53143996
7.0168867 7.534255 0.53818297
6.5966992 7.6161718 0.53115201
6.7214298 7.7117019 0.53607398
6.7170501 7.8054061 0.53824699
