# .PCD v0.7 - Point Cloud Data file format
VERSION 0.7
FIELDS x y z
SIZE 4 4 4
TYPE F F F
COUNT 1 1 1
WIDTH 106
HEIGHT 1
VIEWPOINT 0 0 0 1 0 0 0
POINTS 106
DATA ascii
-25.675798 12.197398 -0.37346601
-25.454102 12.23921 -0.369762
-25.570494 12.444084 -0.37371001
-25.588697 12.552582 -0.37501201
-25.690876 12.652945 -0.37777999
-25.439754 12.62848 -0.37297699
-25.360634 12.688614 -0.372082
-25.695417 12.957629 -0.380629
-25.558371 12.989276 -0.37843099
-25.458736 13.039365 -0.37708801
-26.64707 11.48569 -0.23091801
-26.574163 11.553427 -0.230317
-26.46995 11.607196 -0.229204
-26.512032 11.724999 -0.230497
-26.363617 11.758636 -0.228663
-26.25322 11.858085 -0.22776
-26.102959 11.889207 -0.225895
-25.901859 11.896179 -0.223188
-25.85347 11.972455 -0.22300801
-25.804855 12.048545 -0.222827
-25.568727 12.085566 -0.21985
-25.712576 12.104046 -0.22192501
-25.452974 12.128907 -0.218556
-25.353434 12.179419 -0.21753401
-25.343859 12.272922 -0.218015
-25.38249 12.390125 -0.219308
-25.459232 12.551508 -0.22141349
-25.474247 12.683385 -0.222497
-25.489712 12.7911 -0.22342899
-25.504749 12.899037 -0.224361
-25.587097 13.041642 -0.226437
-26.689402 11.457517 -0.046842001
-26.53054 11.786273 -0.046721
-26.377085 11.966941 -0.046146002
-26.330273 12.045574 -0.046059001
-25.998493 12.091611 -0.043605
-25.585857 12.095422 -0.040367
-26.26689 12.116477 -0.045814998
-25.831875 12.112821 -0.042369001
-25.613783 12.157934 -0.040819999
-25.422564 12.361976 -0.040089
-25.342319 12.421493 -0.039687999
-25.303175 12.501041 -0.039687999
-25.20294 12.5501 -0.039096002
-25.213593 12.604901 -0.039391998
-25.29705 12.74625 -0.040592998
-25.53315 12.966263 -0.043290999
-26.757378 11.586956 0.12544
-26.645672 11.638199 0.125668
-26.457008 11.655061 0.126128
-26.568371 11.803755 0.125679
-26.574982 11.906745 0.12554599
-26.382463 11.92031 0.126017
-26.28536 11.92627 0.126256
-26.01124 11.900826 0.126978
-25.884703 11.941507 0.12725
-25.82892 12.014342 0.127305
-25.733084 12.068299 0.127483
-25.678766 12.141397 0.127533
-25.710276 12.205685 0.127377
-25.644733 12.273464 0.127461
-25.481707 12.294111 0.12784401
-25.518534 12.410767 0.127611
-26.423168 11.436689 0.27396199
-26.359629 11.50761 0.27389199
-26.43313 11.638814 0.27417201
-26.35076 11.701459 0.27405599
-26.160606 11.715375 0.27366301
-25.970629 11.728213 0.27327099
-25.826546 11.711881 0.27294901
-25.907804 11.847124 0.27325201
-25.957602 11.968728 0.27347699
-25.850988 12.018109 0.27329901
-25.889133 12.134977 0.27349499
-25.692595 12.190689 0.27313599
-25.990063 12.282168 0.273855
-25.744345 12.314572 0.27336901
-25.490269 12.390226 0.272912
-25.732544 12.408438 0.27343899
-25.505075 12.496688 0.27305201
-25.422674 12.555452 0.27294001
-25.415207 12.676199 0.2730495
-25.332216 12.759224 0.27296299
-25.311619 12.848715 0.27301401
-25.358335 12.972877 0.27324301
-26.473894 11.709614 0.440431
-26.382162 11.768328 0.43994799
-26.270254 11.817574 0.43928701
-26.269161 11.941313 0.43968999
-26.060278 11.970198 0.438256
-26.116953 12.095623 0.43909401
-26.022629 12.151425 0.43859401
-25.790634 12.142138 0.43687001
-25.598724 12.150343 0.4355
-25.559841 12.255058 0.43558049
-25.462898 12.331862 0.43514499
-26.578121 11.537256 0.63659501
-26.422722 11.568451 0.63467097
-26.282017 11.605258 0.63298398
-26.289257 11.707327 0.63369399
-26.341703 11.830078 0.63514501
-26.143736 11.889368 0.63283598
-26.280739 11.902022 0.63476002
-26.071735 11.955567 0.63227302
-26.06308 12.050864 0.63274699
-26.023035 12.231418 0.63333899
