# .PCD v0.7 - Point Cloud Data file format
VERSION 0.7
FIELDS x y z
SIZE 4 4 4
TYPE F F F
COUNT 1 1 1
WIDTH 331
HEIGHT 1
VIEWPOINT 0 0 0 1 0 0 0
POINTS 331
DATA ascii
6.8641129 10.480654 -0.49518901
7.0495319 10.672411 -0.44148901
7.1039758 10.681857 -0.44340199
7.0301709 10.716244 -0.44279799
7.0366931 10.80028 -0.44652301
6.7940922 10.607577 -0.36703601
6.8545389 10.628102 -0.36929899
6.9324274 10.638306 -0.3716065
6.4207792 10.423708 -0.20005099
6.9308963 10.58082 -0.22972301
6.8716831 10.623623 -0.213585
6.9836602 10.6244 -0.28093201
7.0389919 10.635787 -0.28245601
6.9655442 10.743628 -0.28436199
6.4439759 10.388219 -0.19945601
7.0574961 10.680699 -0.147503
6.4397449 10.743718 -0.13991299
7.0165362 10.753008 -0.14854801
6.3212452 10.853195 -0.140848
6.9990592 10.850169 -0.150528
6.746841 10.139592 -0.042759001
6.5707378 10.290195 -0.043368999
6.7464352 10.242977 -0.044509001
6.8556972 10.23281 -0.045566998
6.279707 10.365273 -0.041538
6.4699249 10.382143 -0.0438575
6.5591602 10.379258 -0.0447735
6.651834 10.38074 -0.045811001
6.7779188 10.36104 -0.046870001
7.3248749 10.324593 -0.052526999
6.3488169 10.40516 -0.042962
6.4180202 10.426064 -0.044061497
6.7268291 10.425232 -0.047398999
7.028018 10.418142 -0.050655
7.3343487 10.44149 -0.054582998
7.4610615 10.411655 -0.055579998
6.3567629 10.56634 -0.045852002
6.9059958 10.628429 -0.052852999
7.0402188 10.614463 -0.054115001
7.4230409 10.673489 -0.059487
6.3756571 10.768656 -0.049586501
7.4134111 10.731256 -0.060341999
6.3259592 10.858773 -0.050655
6.2726011 10.924283 -0.051265001
6.3209529 10.928728 -0.051835001
6.8063121 10.080241 0.022577001
6.7488518 10.178503 0.0303175
6.809691 10.188789 0.021194
6.93256 10.129831 0.020893
6.5611377 10.247563 0.020869143
6.8640475 10.234781 0.098696001
7.4608431 10.281652 0.095388003
6.344418 10.331388 0.023163501
6.6513987 10.331758 0.049426001
6.7164664 10.33674 0.059328999
6.9162588 10.329836 0.097755998
7.262454 10.339413 0.055716999
7.3915191 10.356182 0.095214002
7.4481721 10.368156 0.054256748
6.4892702 10.460737 0.049400002
6.6322274 10.451846 0.048982248
6.843986 10.468776 0.097093999
6.9156709 10.476646 0.048355501
7.271111 10.463 0.095058002
7.3388968 10.448222 0.054141499
7.5995712 10.403294 0.093822002
6.3680458 10.517862 0.098939002
6.3435268 10.65591 0.0586785
7.2962308 10.676425 0.093404002
6.4378476 10.733927 0.048572998
7.6570821 10.798031 0.090741001
7.4616141 10.844312 0.091384999
6.3543158 10.957232 0.031894669
6.342247 11.053067 0.095040001
6.4616051 11.041603 0.023703374
6.5443454 11.048473 0.031291336
6.3793936 11.356563 0.030896667
6.4021039 11.320485 0.092759997
6.898344 9.9621773 0.100489
6.8221788 10.053184 0.10021
6.8913932 10.169475 0.172277
6.4602575 10.270983 0.12451133
6.837338 10.227556 0.172227
6.3504915 10.378691 0.100053
6.427422 10.372552 0.17250399
6.540874 10.336905 0.17242099
6.4480948 10.42433 0.17235151
6.6290131 10.404134 0.172132
7.0007949 10.402087 0.171572
6.964838 10.598933 0.17117199
7.347858 10.55715 0.170672
7.4491339 10.59614 0.170422
6.426856 10.631928 0.171891
6.5744781 10.648451 0.171638
7.0843501 10.63497 0.17090499
7.5641799 10.688761 0.170028
6.229763 10.719768 0.17196
6.3707528 10.786669 0.171602
6.4769292 10.715077 0.17162199
6.9617057 10.741035 0.17084599
7.490026 10.726221 0.17006201
6.3610592 10.867775 0.171422
6.9372311 10.814772 0.170711
6.3454351 10.99945 0.17112701
6.5002851 10.908654 0.17112701
7.2467341 10.954471 0.169917
6.3874998 11.235793 0.1705
6.4474378 11.383446 0.17006201
6.5138798 11.375528 0.169989
6.891129 9.4405603 0.23402999
7.069633 9.4953156 0.23438001
7.0003352 9.5266733 0.23434301
6.8378868 10.011853 0.235048
6.956605 10.049153 0.235276
7.1455388 10.082856 0.235594
7.215766 10.047496 0.235622
6.8743467 10.167205 0.23539549
7.079752 10.124277 0.235585
7.1253772 10.121583 0.235641
6.3029218 10.232693 0.2348
6.8771439 10.275015 0.235608
6.350337 10.381939 0.235155
6.5435886 10.365432 0.2353605
6.2820482 10.453747 0.23521601
6.3520794 10.458152 0.235309
6.4535232 10.402939 0.235323
6.6808519 10.472576 0.235743
6.930357 10.424636 0.235967
6.1852889 10.515928 0.23522501
6.2839885 10.569071 0.235449
6.8325958 10.56287 0.236112
6.9621973 10.579745 0.2363105
7.2762408 10.579438 0.236719
6.1062469 10.647411 0.23539799
6.8465819 10.694208 0.236388
7.4244318 10.686092 0.237121
6.1214371 10.751602 0.235627
6.2486949 10.738302 0.23574799
6.6956301 10.716324 0.23624299
7.1348162 10.840917 0.237041
6.1713953 10.938229 0.23606351
7.0268731 9.4174423 0.38160899
7.2431679 9.4871922 0.38436201
6.9029579 9.5925379 0.38261601
7.073699 9.542119 0.383504
7.1604371 9.5952396 0.303637
7.2353668 9.5699539 0.34447449
6.6767411 9.6250544 0.38107601
6.9683599 9.6193142 0.383504
7.2756948 9.6545143 0.38662702
6.6954198 9.7166805 0.38234901
6.8064642 9.7296553 0.38344449
7.1874008 9.72715 0.30462098
7.3258801 9.7536869 0.30545899
6.6554613 9.8226824 0.38331151
7.1332269 9.8134708 0.38726401
6.4216862 9.975913 0.383297
6.6510291 9.9161291 0.384422
6.8189702 9.9617624 0.38637501
7.0648966 9.9474468 0.38828501
7.2545528 9.9160976 0.30616799
7.3148689 9.9308329 0.39025399
6.3560419 10.046255 0.383652
6.4382806 10.018698 0.38396251
7.3215351 10.005326 0.39120099
6.3661151 10.167529 0.38525
6.5787482 10.184458 0.30486199
6.9260111 10.119227 0.30597401
6.3626409 10.250992 0.38627151
6.506041 10.247643 0.304975
6.7769489 10.242172 0.34773451
6.8301139 10.252483 0.34812149
6.9576321 10.269466 0.30711851
7.0807514 10.242155 0.3074975
7.1670098 10.297953 0.308263
7.2303309 10.251071 0.308247
6.307107 10.396521 0.387678
6.7650971 10.399197 0.39131901
6.8032269 10.386247 0.39146701
6.3361616 10.444316 0.38850701
6.5684509 10.492001 0.30690899
6.6151962 10.493338 0.30711901
6.9164491 10.486522 0.39362901
7.3706369 10.450762 0.310213
7.4535451 10.42869 0.31045499
7.5508614 10.437508 0.31097034
6.290081 10.516501 0.38906899
6.4974399 10.559104 0.39120099
6.56282 10.556801 0.30732799
6.900341 10.538324 0.30866599
7.0613871 10.566071 0.30956799
6.3379755 10.656049 0.30707002
6.4036832 10.633077 0.307183
6.8432608 10.632604 0.30905199
7.1534848 10.668072 0.310664
6.337863 10.790897 0.30800501
6.5319357 10.731922 0.3083995
6.6458402 10.766507 0.30911699
6.2555079 10.879877 0.39345101
6.4349947 10.856394 0.35157901
6.6623392 10.831512 0.30963299
6.9279251 10.839655 0.31082499
6.3508129 10.970867 0.30930999
6.4083328 10.990647 0.309681
6.3427896 11.158747 0.31059149
6.4857869 11.197217 0.39922401
6.44838 11.221655 0.311454
6.3874741 11.320775 0.311905
7.1265779 9.584507 0.450811
7.2792311 9.5999088 0.45292401
6.6260428 9.6498222 0.44597501
6.7229729 9.6606026 0.44727501
6.813405 9.6607256 0.44833201
6.9396772 9.6456375 0.44957101
7.027801 9.6720018 0.45105499
7.1509576 9.6173868 0.45164353
6.615911 9.7003689 0.446706
6.726594 9.7310963 0.448495
6.8596907 9.7430391 0.45024198
7.151145 9.745347 0.45373699
7.352212 9.7603045 0.45641899
7.4270949 9.7638083 0.457394
6.6726804 9.8672657 0.4501605
6.9906988 9.8144674 0.45296499
7.1993861 9.8438587 0.45593101
6.625699 10.086019 0.45333001
6.7615252 10.084669 0.45483401
6.378427 10.274767 0.45385867
6.5445299 10.20545 0.45446801
6.7497101 10.205448 0.45674399
6.8093538 10.225862 0.45776001
6.5478129 10.353822 0.45704901
6.3764429 10.405231 0.456094
6.7845578 10.400262 0.46044201
6.4100161 10.534676 0.45869499
6.6709518 10.54928 0.461743
6.8630452 10.630609 0.46523699
6.945292 10.68454 0.46706599
6.376708 10.980165 0.466131
6.6365552 10.9866 0.468936
6.6266098 11.048599 0.46991101
6.3272548 11.176783 0.469098
6.4297628 11.152764 0.469708
6.6039662 11.12963 0.47108901
6.4303942 11.305103 0.40020099
7.3451462 9.2761106 0.55071199
7.5203848 9.2622805 0.59046698
7.0981059 9.3753023 0.51238799
7.1340151 9.3728228 0.58560997
7.2833061 9.348175 0.55130625
7.3738561 9.3426228 0.55275899
7.4203439 9.3170767 0.58982801
7.681004 9.3401299 0.59564501
6.7417121 9.4487143 0.508461
6.957737 9.4340038 0.51143199
7.055932 9.4460869 0.53751004
7.1447597 9.4314966 0.5581224
7.2656679 9.4451447 0.54091603
7.3297052 9.4138956 0.59046698
7.5755072 9.4515305 0.59628397
7.6126699 9.4370384 0.59666699
6.575191 9.5604877 0.508358
6.6338806 9.5490685 0.50897753
6.7546778 9.5652561 0.53527069
6.9392672 9.5624866 0.56243104
7.0594864 9.5523872 0.58877349
7.5141988 9.5134878 0.52179098
7.6632843 9.5468235 0.52486551
7.7678571 9.5226622 0.52608001
6.5654922 9.6107664 0.50928801
6.7477732 9.6535492 0.54918802
6.8452678 9.63727 0.58695197
6.9103918 9.6425266 0.55178845
7.079361 9.6931992 0.518691
6.6219931 9.7585411 0.51326603
6.7309451 9.7004337 0.586505
7.094811 9.7462673 0.52003402
6.5463333 9.8583031 0.587367
7.1962991 9.8029346 0.59781802
6.4634891 9.9355497 0.58797503
6.612421 9.9682312 0.55453551
6.846312 9.9341736 0.59474999
6.4573164 10.039656 0.5537858
6.555676 10.018784 0.554869
6.6135211 10.047956 0.51936299
6.4251666 10.129028 0.555529
6.7767138 10.155671 0.52401298
6.8123331 10.121775 0.599096
6.566628 10.271019 0.598777
6.9360909 10.323253 0.52990299
6.4836011 10.446582 0.52623498
6.7501659 10.431487 0.52959299
6.8167901 10.497902 0.53197002
6.6238508 10.560543 0.53065252
6.5333323 10.637484 0.53110868
6.2311292 10.703347 0.52855998
6.4862208 10.787038 0.53377801
6.5179968 10.763193 0.53367501
6.1621666 10.870522 0.53141868
6.2422447 10.838976 0.53173697
6.370276 10.862866 0.53393298
6.4166121 10.863434 0.53455299
6.1334419 10.966266 0.53320998
6.5143032 10.949625 0.53775603
6.0601587 11.037716 0.53390753
6.1116261 11.008177 0.53388101
6.6405082 11.121121 0.54323298
7.7777772 9.5192776 0.602036
6.9764748 10.261732 0.605744
6.5232191 10.345936 0.60005498
7.026299 10.370454 0.60951501
6.5142202 10.422388 0.60197246
6.323885 10.536634 0.60190898
6.562429 10.592517 0.60740501
6.3182859 10.60287 0.603634
6.476778 10.677849 0.60829997
6.5499372 10.684729 0.60970652
5.981545 10.835254 0.60472101
6.088438 10.867299 0.60727799
6.168406 10.849711 0.60804498
6.2376623 10.839239 0.608854
6.3053818 10.812356 0.60919499
6.4208589 10.853488 0.61219901
6.155828 10.907378 0.609451
6.5655069 10.902171 0.615906
6.0643239 11.027006 0.611368
6.1317029 11.026293 0.612391
6.4613872 11.001309 0.61692899
5.98843 11.136542 0.61328602
6.0630488 11.107482 0.61360502
6.1002221 11.260199 0.61846298
