# .PCD v0.7 - Point Cloud Data file format
VERSION 0.7
FIELDS x y z
SIZE 4 4 4
TYPE F F F
COUNT 1 1 1
WIDTH 733
HEIGHT 1
VIEWPOINT 0 0 0 1 0 0 0
POINTS 733
DATA ascii
0.74499202 0.56715596 -0.30055001
0.71971798 -0.24827 -0.230564
0.92850089 -0.22168335 -0.20767099
0.94180739 -0.1534501 -0.20767103
0.95394349 -0.028328501 -0.207671
0.81166965 0.026148502 -0.20979403
0.95127147 0.078469805 -0.20767103
0.79706198 0.156123 -0.209794
0.80094337 0.13478701 -0.20979401
0.9468478 0.1220225 -0.207671
0.79323602 0.219678 -0.23014399
0.9175657 0.27156428 -0.21034414
0.67534697 0.35148099 -0.230564
0.88983399 0.34526959 -0.20767097
0.91357112 0.31524086 -0.22036849
0.66419077 0.45934126 -0.23024899
0.86645138 0.4108215 -0.21228828
0.63774902 0.502949 -0.209794
0.76860452 0.56503499 -0.207671
0.92314899 -0.6337865 -0.108798
0.6605435 -0.20428801 -0.109766
0.71696001 -0.24311799 -0.195058
0.81541699 -0.27202001 -0.122495
1.118701 -0.236377 -0.15582301
0.68766415 -0.12453425 -0.12411588
1.1104341 -0.14833 -0.108798
0.68968374 -0.052408341 -0.12228034
0.71147865 -0.046938337 -0.14669602
0.8335523 -0.057527855 -0.12797117
0.98840302 -0.027479 -0.19813
0.69013202 0.037911799 -0.109766
0.70103103 0.097388998 -0.12965
0.81450516 0.035831761 -0.13266498
0.98287642 0.058695219 -0.19549564
0.67607254 0.16513371 -0.13192534
0.76239175 0.17441401 -0.140183
0.83916634 0.13656017 -0.12463606
0.97071874 0.14742938 -0.19351988
0.66082501 0.23360176 -0.12674992
0.7808516 0.23407981 -0.13266498
0.83474648 0.24789415 -0.12819411
0.9468016 0.28492132 -0.19813
0.56852305 0.37942237 -0.15387601
0.64820701 0.303354 -0.155219
0.744892 0.33190599 -0.13266499
0.83420622 0.32282457 -0.13971901
0.92675632 0.34338948 -0.19813
0.56011665 0.4200674 -0.15343675
0.685197 0.44218799 -0.13266499
0.72867602 0.45599499 -0.122495
0.89679396 0.41647851 -0.19813
0.77478898 0.52905899 -0.161249
0.837524 0.744057 -0.108798
0.6765883 -0.24219267 -0.061475337
0.71003664 -0.11353134 -0.061475337
0.7150473 -0.070248149 -0.077215008
0.72257268 0.054603435 -0.085110135
0.69400281 0.19112299 -0.078851007
0.70870841 0.15039213 -0.082884684
0.68619299 0.22319317 -0.082467422
0.71337903 0.202226 -0.065070003
0.9349795 0.27537602 -0.097790003
0.64921403 0.3421315 -0.078504503
0.73319101 0.40085301 -0.098289996
0.81060499 0.457528 -0.033305001
0.92717201 0.40266699 -0.065231003
0.83054501 0.54332995 -0.081510499
0.614335 0.69928801 -0.033305001
0.18399541 -1.2090566 0.066023
0.21063375 -1.2047225 0.066023
0.17840099 -1.1467507 0.087887675
0.23959783 -1.1368841 0.086463965
0.305895 -1.18413 0.066023
0.196035 -1.0164551 0.079715997
0.21164761 -1.0132715 0.079715997
0.31108201 -1.0923364 0.098888002
0.55342603 -1.0228029 0.087994002
0.24239358 -0.97721392 0.072385006
0.311039 -0.98735303 0.079715997
0.482694 -0.91318399 0.040720001
0.69582897 -0.97950101 0.053291999
0.73807204 -0.92235804 0.042408001
0.65011603 -0.80558002 0.079715997
0.73708802 -0.864106 0.098888002
0.8652485 -0.80456746 0.042408001
0.88033098 -0.717632 0.098888002
0.94291228 -0.75428998 0.060032248
0.76091599 -0.65989399 0.072384998
0.927351 -0.67504627 0.084768005
1.034281 -0.53166801 0.087994002
1.148665 -0.41988799 0.066023
0.9548595 -0.30327952 0.065808997
1.0868635 -0.3730835 0.093441002
-1.1489475 -0.23995535 0.084301673
0.97281301 -0.26093599 0.072384998
1.170547 -0.27096099 0.053291999
-1.211066 -0.17045499 0.066023
-1.1501255 -0.17169049 0.087994002
1.1719855 -0.023678001 0.065200999
-1.2209409 0.070987999 0.066023
1.199452 0.070113003 0.053291999
1.2090631 0.068941496 0.0366905
1.1287146 0.1256135 0.098888002
-1.195622 0.25734299 0.066023
0.92927498 0.35989201 0.059232999
1.1540849 0.37099952 0.059657499
0.91318101 0.48755699 0.079715997
1.062106 0.40237901 0.098888002
-1.003641 0.58746201 0.087994002
-0.99899697 0.59532601 0.087994002
1.0283335 0.52338451 0.082044505
1.10177 0.53088701 0.066023
0.90012699 0.69264001 0.098888002
0.624654 0.79010201 0.072384998
0.72605455 0.73596346 0.060217999
0.963346 0.73422599 0.0366905
0.56568855 0.84589279 0.063013494
0.60586703 0.80459899 0.072384998
0.84573698 0.85308099 0.031248501
0.65866297 0.98089403 0.042408001
0.72873199 0.955275 0.053291999
0.475133 1.081776 0.042408001
0.54672253 1.0695275 0.031248501
0.63639706 1.0422443 0.035400335
0.43800899 1.141878 0.066023
-0.40420502 -1.2014557 0.179354
-0.34114376 -1.214559 0.17693189
-0.2510049 -1.2317303 0.17503898
-0.14888881 -1.2343119 0.17868571
-0.051070381 -1.2413667 0.17910725
0.048418391 -1.243717 0.1783648
0.15093793 -1.2354858 0.16972703
0.24615335 -1.2294282 0.1585706
0.34085867 -1.2158682 0.1774336
0.40438032 -1.2013963 0.179354
-0.61837602 -1.1065145 0.179354
-0.54069519 -1.1240499 0.1727718
-0.44568169 -1.1537105 0.17020571
-0.35209399 -1.1588002 0.17360952
-0.25067008 -1.1690897 0.18053128
-0.15283853 -1.1789378 0.17768453
-0.051217955 -1.1853209 0.17835887
0.043511752 -1.1848395 0.18001328
0.14849868 -1.1733054 0.19111976
0.25279611 -1.1704245 0.18007083
0.35292229 -1.1521968 0.17968078
0.44791839 -1.1519223 0.17855458
0.54096776 -1.1309081 0.17265251
0.61384219 -1.1090413 0.17935398
-0.73508471 -1.0181689 0.17446564
-0.64750016 -1.0547504 0.17519753
-0.5602293 -1.0638332 0.18346201
-0.45037222 -1.0885462 0.195704
0.17219692 -1.0610566 0.11230455
0.24203213 -1.0388957 0.12012081
0.46308455 -1.0840901 0.1935064
0.55459309 -1.0599943 0.1868055
0.63466847 -1.0630378 0.1738418
0.72962737 -1.0147865 0.16567844
-0.84246308 -0.93009007 0.17773384
-0.75614506 -0.9491697 0.1862641
-0.65849257 -0.97855312 0.19531988
-0.34558451 -0.90951389 0.17218302
-0.23010977 -0.94523174 0.17218302
-0.14981876 -0.96094412 0.17218302
-0.048862748 -0.97137213 0.17218302
0.049737081 -0.9713273 0.17218302
0.18940902 -0.9168573 0.11100079
0.24550724 -0.92356271 0.14384125
0.33655277 -0.91266423 0.17218302
0.41670901 -0.97851503 0.129409
0.533167 -0.92025602 0.129409
0.65654582 -0.99087584 0.18654199
0.76596045 -0.95253128 0.17233506
0.84130067 -0.92423069 0.17590338
-0.93568939 -0.83848202 0.17477347
-0.85068196 -0.85854155 0.18621874
-0.7809853 -0.88190001 0.195704
-0.41102633 -0.8818593 0.17218301
-0.36035025 -0.87936723 0.17002174
-0.23823065 -0.85017866 0.16353801
-0.1560853 -0.86886495 0.16353799
-0.049907729 -0.88128114 0.16353799
0.049910679 -0.88131469 0.16353799
0.105374 -0.87688327 0.16353799
0.25871721 -0.8917765 0.10711458
0.37210411 -0.87725806 0.1702619
0.45084473 -0.86173397 0.17218302
0.54861718 -0.83462101 0.15996188
0.66896617 -0.82799971 0.11955383
0.79479444 -0.86960238 0.195704
0.8539378 -0.85436523 0.18631169
0.93350083 -0.83648407 0.17672648
-1.0201538 -0.72801554 0.17337935
-0.95331526 -0.7543565 0.18353176
-0.88337916 -0.77933019 0.19570401
-0.67344803 -0.70230401 0.17218301
-0.41092801 -0.78178602 0.16353799
-0.31010523 -0.77298725 0.15649499
-0.27167511 -0.78722692 0.15649499
0.26424599 -0.78986502 0.156495
0.35561651 -0.75258499 0.156495
0.43912688 -0.7490657 0.16152571
0.56985223 -0.76053125 0.17002174
0.63226688 -0.7388441 0.17218302
0.77828574 -0.73640078 0.11554226
0.88576275 -0.77659756 0.19570401
0.95034409 -0.75416124 0.18511547
1.0240532 -0.73011094 0.17528041
-1.0516751 -0.67221612 0.17120676
-0.96732539 -0.67396158 0.19373773
-0.72794813 -0.64516866 0.17218302
-0.69031042 -0.68566787 0.17218302
0.45893401 -0.69504899 0.156495
0.55798203 -0.66247606 0.16119033
0.75129938 -0.617809 0.17218302
0.85994053 -0.64084446 0.118682
0.98520386 -0.65712434 0.19423425
1.0512367 -0.64823306 0.18007219
1.1089623 -0.61398214 0.17935398
-0.92900902 -0.51085198 0.11685
-0.71996832 -0.51154768 0.16353801
-0.65844798 -0.51005799 0.156495
0.63935852 -0.57224602 0.16001651
0.76551908 -0.57356715 0.16249864
0.81501645 -0.53121781 0.17218302
0.90314299 -0.59475702 0.107955
1.0599902 -0.55548513 0.19068886
1.129379 -0.54421902 0.17612876
-1.132388 -0.43874049 0.187253
-1.084952 -0.45844868 0.195704
-0.96698898 -0.44279701 0.129409
0.85002136 -0.47323436 0.17218301
1.0837121 -0.46144992 0.19570401
1.1521186 -0.4515141 0.17773278
1.2014091 -0.40434402 0.179354
-1.215077 -0.30032799 0.12564801
-1.161216 -0.33960038 0.16468941
-0.99289 -0.37175 0.11685
-0.84296399 -0.334894 0.1334455
0.90449047 -0.3585085 0.17218301
1.013166 -0.32346901 0.129409
1.157926 -0.35389283 0.18545328
1.2152096 -0.33496141 0.17646307
-1.22974 -0.25897068 0.14355001
-1.1543831 -0.23491263 0.195704
-1.058097 -0.223234 0.107955
-0.93917799 -0.25435752 0.17218301
-0.899939 -0.240989 0.103353
0.79509997 -0.24805 0.156495
0.86647201 -0.26948202 0.1334455
0.93543959 -0.26722699 0.17218302
1.052394 -0.24873801 0.107955
1.1650894 -0.25278816 0.19149569
1.2300923 -0.25066409 0.17435201
-1.2317555 -0.17331901 0.1555205
-1.1737158 -0.12548372 0.19036701
-1.054656 -0.137256 0.129409
-0.94117749 -0.14504701 0.137768
-0.85168302 -0.155643 0.16119033
0.87251002 -0.137032 0.16353799
0.95891351 -0.163868 0.17218301
1.048071 -0.18078899 0.129409
1.169029 -0.15266 0.19542231
1.2447481 -0.14993227 0.17531183
-1.2552381 -0.057517502 0.17487299
-1.1764526 -0.0517365 0.19570401
-1.059527 -0.092418998 0.129409
-0.97116899 -0.054035332 0.17218301
-0.86454099 -0.049904667 0.16119033
1.1767167 -0.049304485 0.195704
1.2542653 -0.050538223 0.17485332
-1.2425283 0.056386836 0.16691184
-1.1751112 0.080390595 0.195704
-0.97094846 0.058191001 0.17218301
0.852907 0.093758002 0.16001651
0.94724649 0.098285496 0.137768
1.1766465 0.051275518 0.195704
1.2491747 0.049731359 0.17506793
-1.2291234 0.144436 0.13593102
-1.1725664 0.12476044 0.19336906
-1.051053 0.13513601 0.11685
-0.966344 0.113767 0.17218301
-0.8371045 0.187526 0.16001651
0.86708701 0.167962 0.16353799
1.0635635 0.12282 0.1124025
1.1717957 0.15925761 0.19457722
1.2398649 0.14845672 0.17594045
-1.237589 0.27432799 0.179354
-1.17305 0.23655634 0.15526734
-1.0344775 0.23543 0.12103634
-0.83098203 0.299198 0.16353799
-0.79606998 0.244725 0.156495
0.784338 0.28022799 0.156495
0.83108401 0.298917 0.16353799
0.93963999 0.252666 0.17218301
1.1641427 0.25285098 0.19253486
1.230294 0.24396808 0.17383896
-1.2006871 0.31525201 0.14064901
-1.1749092 0.3508912 0.17882662
-0.91096097 0.34192699 0.17218301
-0.85881299 0.361119 0.103353
0.732723 0.396018 0.156495
0.86012751 0.35231799 0.13560675
0.94784796 0.371943 0.150796
1.1582714 0.35109881 0.18257307
1.2113605 0.33607966 0.17508638
-1.1435531 0.46545896 0.15905969
-0.85614604 0.46009099 0.17218301
-0.74863803 0.43539703 0.16119033
0.77342701 0.42645401 0.16353799
0.85760599 0.459645 0.17218301
0.9733547 0.47093734 0.107955
1.0841092 0.46044648 0.19570401
1.1545274 0.45658141 0.17746496
1.2012326 0.40487051 0.179354
-1.124831 0.53616089 0.17039202
-1.0973705 0.59099799 0.17039201
-0.92786252 0.51978397 0.129409
-0.84757948 0.56435251 0.150796
-0.71206999 0.52250099 0.16353799
-0.64062798 0.53226799 0.156495
0.81054801 0.53830802 0.17218301
1.0612956 0.55493093 0.18654646
1.1298274 0.54406482 0.17549983
-1.0480295 0.65921718 0.15378101
-0.95824766 0.68529308 0.19570401
-0.86023802 0.62515652 0.129409
-0.723185 0.65097398 0.17218301
-0.68415397 0.69187897 0.17218301
-0.59441298 0.65324098 0.16353799
0.47846499 0.68175101 0.156495
0.64403498 0.60437602 0.16353799
0.71429402 0.66071701 0.17218301
0.85633397 0.66037601 0.107955
0.97802699 0.66468894 0.19461353
1.0518575 0.64977932 0.17973371
1.1074948 0.61668718 0.179354
-1.0138468 0.72575712 0.16591762
-0.98001885 0.76284778 0.16896068
-0.654737 0.71971047 0.17218301
-0.590837 0.773094 0.17218301
-0.32277426 0.76765114 0.15649506
-0.27525839 0.78589529 0.15649503
0.26798651 0.78842103 0.156495
0.36366701 0.76289874 0.15825576
0.43141949 0.74121571 0.16001651
0.54514635 0.76954806 0.16930133
0.75983703 0.75339496 0.1124025
0.88372219 0.77894002 0.19570401
0.9560551 0.75162548 0.18441492
1.0205346 0.73579419 0.17412801
-0.93312043 0.8259843 0.17039202
-0.88359493 0.87828857 0.16741772
-0.77819252 0.88449448 0.195704
-0.53001523 0.81586564 0.17218302
-0.46357918 0.85498595 0.17218302
-0.35046619 0.85898769 0.16786052
-0.25039488 0.84645188 0.16353799
-0.14996976 0.86978722 0.16353799
-0.059822254 0.88072544 0.16353801
0.031205056 0.8824417 0.16353799
0.179436 0.86478603 0.16353799
0.24594299 0.84131473 0.16265762
0.36279979 0.8702057 0.16930135
0.4368757 0.86396742 0.16493776
0.53453642 0.83366603 0.16111641
0.63394213 0.85460281 0.12201764
0.78033727 0.88248956 0.19570401
0.86133415 0.8599304 0.18265712
0.9358505 0.8332563 0.17605919
-0.82960725 0.92944825 0.16873963
-0.76884633 0.97121388 0.16474457
-0.32326835 0.91763645 0.17218304
-0.24996307 0.9398917 0.17218302
-0.15039992 0.9608767 0.17218302
-0.057760831 0.97096109 0.17218302
0.038601834 0.97197849 0.17218301
0.18848273 0.95454836 0.17218302
0.24942508 0.94001991 0.17218302
0.33629125 0.91277188 0.17218304
0.50767702 0.93454599 0.129409
0.69031602 0.96117783 0.18503001
0.75388545 0.95249134 0.17600301
0.83500952 0.93503046 0.17632434
-0.73865527 1.0153632 0.17437512
-0.64437252 1.0669069 0.17334929
-0.55256635 1.0697699 0.18749686
-0.4690702 1.0805432 0.19570401
0.46312737 1.0838699 0.19400586
0.55315298 1.0719181 0.18173173
0.64724213 1.0608535 0.16665791
0.72518396 1.0194467 0.1682454
-0.6165452 1.1075633 0.179354
-0.54204428 1.1303664 0.17532876
-0.44427243 1.16115 0.17796758
-0.3530471 1.1607341 0.17405656
-0.24920914 1.1696055 0.18060765
-0.15297171 1.1783894 0.17784739
-0.049729303 1.1858754 0.17734122
0.053933073 1.1841092 0.18045548
0.14337413 1.1769416 0.18442637
0.25680408 1.165092 0.19040182
0.35939863 1.1506232 0.18331331
0.44930184 1.1506237 0.17756367
0.54045779 1.1280146 0.17207193
-0.4043445 1.2014105 0.179354
-0.33845967 1.2134142 0.17353405
-0.25514665 1.2271581 0.1682951
-0.14816475 1.2346907 0.17869398
-0.049727336 1.2408057 0.1791985
0.048329536 1.2403085 0.17804697
0.14566995 1.2346661 0.17727816
0.2493322 1.2318326 0.17422532
0.34065479 1.2129374 0.17534384
0.4051125 1.201151 0.179354
-0.41432393 -1.2168055 0.21137241
-0.34136316 -1.2354628 0.21268195
-0.25029314 -1.245038 0.2180447
-0.15097955 -1.2609465 0.21804467
-0.048337281 -1.2628475 0.22065052
0.038323209 -1.2681342 0.21790417
0.13593261 -1.2564273 0.21950637
0.26352099 -1.2593017 0.20769766
0.35484365 -1.2357993 0.20976064
0.42153424 -1.2152447 0.20898703
-0.65499306 -1.1054881 0.21259734
-0.52500606 -1.1590266 0.21295701
-0.44134676 -1.15151 0.23557939
-0.35290021 -1.1660049 0.2409579
-0.2503114 -1.1738778 0.2473601
-0.15086916 -1.1907486 0.2473601
-0.069520622 -1.1984731 0.24736002
0.130904 -1.193465 0.24736001
0.290434 -1.164965 0.24736001
0.37277278 -1.1742167 0.23609197
0.47731584 -1.1626849 0.22429711
0.55495948 -1.1479937 0.21552257
0.61915791 -1.1281019 0.20769767
-0.80659837 -1.0051847 0.20279799
-0.75290656 -1.0453314 0.20377791
-0.63553071 -1.034059 0.24266502
-0.52593225 -1.0900103 0.24383874
-0.44217789 -1.0294127 0.22016145
-0.3433046 -1.0323936 0.20928197
-0.25066122 -1.0587597 0.20928195
-0.15145199 -1.0774356 0.20928195
-0.050938904 -1.0868345 0.20928195
0.049852721 -1.0868851 0.20928195
0.12918454 -1.0805005 0.209282
0.26588908 -1.0551579 0.209282
0.35229766 -1.0294029 0.20928195
0.42428333 -1.0225146 0.21562836
0.55467242 -1.0728831 0.24471906
0.61120075 -1.0790205 0.233275
0.78709102 -1.013291 0.21749701
0.80334198 -1.007792 0.20279799
-0.90690506 -0.91120785 0.21096411
-0.85636234 -0.94082969 0.2169497
-0.75791579 -0.94335198 0.24383885
-0.67705899 -0.99150598 0.24736001
-0.55490655 -0.93567687 0.20928203
-0.44886684 -0.99142158 0.20928201
-0.34297979 -0.91672838 0.23379506
-0.25100222 -0.94596153 0.23379506
-0.15100783 -0.96697491 0.23379506
-0.05095651 -0.97739518 0.23379506
0.049783248 -0.97742981 0.23379506
0.14966413 -0.9671998 0.23379506
0.24794906 -0.94681686 0.23379503
0.32576409 -0.92315555 0.23379499
0.46346283 -0.9847275 0.209282
0.5343855 -0.94790715 0.20928198
0.79301137 -0.91884601 0.24266499
0.85493279 -0.94201404 0.21716583
0.90969342 -0.90924472 0.20947938
-1.001971 -0.80145198 0.21749701
-0.93834132 -0.86075872 0.2201114
-0.85592121 -0.85967058 0.24275053
-0.72440463 -0.82103592 0.21152186
-0.66651857 -0.85957676 0.20928198
-0.53289056 -0.82111084 0.23379506
-0.44931379 -0.86934513 0.23379508
-0.34631029 -0.85378045 0.22493929
-0.25046748 -0.85939372 0.22091393
-0.15059936 -0.88241678 0.22091393
-0.050130378 -0.89377069 0.22091393
0.046997119 -0.89398026 0.22091393
0.13075441 -0.88588363 0.22091401
0.27912089 -0.8508659 0.22091402
0.34870753 -0.82863587 0.221558
0.44645947 -0.86685622 0.23325831
0.51812261 -0.83066839 0.23379499
0.78171098 -0.87394702 0.2378405
0.85423791 -0.85805339 0.24354544
0.95398831 -0.84151995 0.2178053
1.002552 -0.80986804 0.20279799
-1.0401542 -0.75039834 0.21749701
-0.9798764 -0.75991178 0.23327497
-0.81674534 -0.71930009 0.209282
-0.7702415 -0.76859039 0.20928197
-0.6436044 -0.73717231 0.23379508
-0.56852019 -0.76105857 0.22931464
-0.44663405 -0.77557337 0.22091401
0.44528052 -0.77672023 0.22091396
0.67574197 -0.70854044 0.233795
0.77106529 -0.76782113 0.20928197
0.83189684 -0.72820485 0.21514015
0.95107168 -0.75881797 0.24142954
1.046279 -0.73366338 0.21419193
-1.1171607 -0.63233405 0.21539718
-1.0611525 -0.64141423 0.23285735
-0.90446651 -0.60545623 0.209282
-0.86729878 -0.65678716 0.20928195
-0.73774689 -0.64294356 0.23379508
-0.64094388 -0.65028536 0.22364627
-0.57879758 -0.68332946 0.22091396
0.64908528 -0.64140618 0.22355621
0.73926109 -0.64114511 0.23379506
0.86213017 -0.66359788 0.20928195
0.96451074 -0.66118503 0.23678279
1.0549592 -0.65353799 0.23116879
1.1192288 -0.63341659 0.2094125
-1.1493472 -0.54754359 0.21651979
-1.0713232 -0.55661136 0.24483202
-0.93827164 -0.5506047 0.20928195
-0.82078016 -0.53343087 0.23379505
-0.74609464 -0.54976594 0.22574437
-0.68272519 -0.57955438 0.22091396
0.68757075 -0.57384092 0.22091398
0.73918527 -0.55324703 0.22520764
0.82280201 -0.5304026 0.23379503
0.93801296 -0.55109715 0.20928195
1.0727952 -0.55730766 0.24426827
1.1507553 -0.54656225 0.2160956
-1.2172368 -0.41467333 0.2101475
-1.1521964 -0.45805302 0.23180234
-1.0964723 -0.48909283 0.24736002
-0.98201227 -0.4688912 0.20928197
-0.86674941 -0.449927 0.23348092
-0.77279139 -0.45160568 0.22091393
0.7722528 -0.45247275 0.22091393
0.86715847 -0.44917917 0.23348841
0.98330086 -0.4661037 0.20928195
1.03974 -0.44344479 0.22356123
1.1540005 -0.4638226 0.23004051
1.2106787 -0.43590048 0.2074398
-1.235615 -0.36642 0.20279799
-1.1445674 -0.36229324 0.24736002
-1.0153737 -0.39199501 0.20928201
-0.91463047 -0.34879467 0.23379505
-0.83414924 -0.37336197 0.22377641
0.83142942 -0.35497105 0.22228424
0.91675931 -0.34290689 0.23379506
1.0273446 -0.35824466 0.20928195
1.1655735 -0.35292682 0.2411001
1.2347263 -0.34680045 0.21127447
-1.2549219 -0.2650815 0.21749701
-1.178058 -0.231675 0.24736001
-0.9501403 -0.23604366 0.233795
0.85967863 -0.24913839 0.22091393
0.94805682 -0.24326392 0.23379506
1.0580635 -0.25378695 0.20928197
1.1741818 -0.24845061 0.24736005
1.2472562 -0.24003491 0.21786308
-1.2699336 -0.16099061 0.21176127
-1.0714453 -0.19143933 0.20928201
-0.96660447 -0.15463558 0.23379502
-0.87905455 -0.17150074 0.22091401
0.88261008 -0.14891021 0.22091393
0.96795982 -0.14466804 0.23379505
1.0785619 -0.14371641 0.20928195
1.1908301 -0.15019074 0.24736011
1.2610037 -0.15237422 0.21786132
-1.2655082 -0.021211138 0.21976101
-1.0866938 -0.055981807 0.209282
-0.97816366 -0.043261498 0.23379502
-0.8948651 -0.036000215 0.22091401
0.8937335 -0.050668366 0.22091393
0.9774403 -0.049565971 0.23379506
1.0869303 -0.049430966 0.20928195
1.198471 -0.069554724 0.24736002
1.2608017 -0.047496427 0.22141387
-1.2592415 0.020157438 0.22555509
-1.198873 0.064787 0.24736001
-1.0858436 0.062779665 0.20928201
-0.97714853 0.05843275 0.23379499
-0.89073515 0.093607679 0.22091401
0.89403188 0.046413999 0.22091393
0.97776383 0.045350123 0.23379505
1.086864 0.050094899 0.20928195
1.1985264 0.067648165 0.24736002
1.2602587 0.039682616 0.22179531
-1.2601155 0.18380441 0.21500547
-1.1852221 0.19159918 0.24736002
-1.081943 0.11803193 0.20928201
-0.96920037 0.13542849 0.23379499
-0.88775271 0.1168575 0.22091401
0.88180226 0.15439689 0.22091393
0.96663177 0.15380546 0.23379506
1.0769269 0.15540278 0.20928197
1.1907821 0.1506121 0.2473601
1.2603147 0.15086491 0.21843766
-1.2540128 0.21066587 0.21990515
-1.1791053 0.22424644 0.24736002
-1.056142 0.26308799 0.209282
-0.94127464 0.26802114 0.23379502
0.85733938 0.2572864 0.22091395
0.95369673 0.22015691 0.233795
1.0603334 0.24410978 0.20928197
1.181859 0.21131967 0.24736002
1.2513 0.23937622 0.21616811
-1.1633672 0.3532266 0.241726
-0.91757154 0.34091622 0.23379497
-0.89438099 0.39849699 0.233795
0.83148748 0.36289823 0.22275408
0.91325551 0.35203767 0.233795
1.0315634 0.34571576 0.20928197
1.1727759 0.34761298 0.23914377
1.2385354 0.33685255 0.21139407
-1.188126 0.48438299 0.21749701
-1.097829 0.486072 0.24736001
-0.8747592 0.43924913 0.23379499
0.7710039 0.45450759 0.22091393
0.86755073 0.44783139 0.23344693
0.98411959 0.46437603 0.20928195
1.0362532 0.43967026 0.22197467
1.1533033 0.45693272 0.23141715
1.2106484 0.4331044 0.21014747
-0.81460333 0.54306686 0.23379499
-0.77383399 0.59991503 0.233795
0.68281835 0.57938015 0.22091396
0.74566537 0.54908794 0.22562654
0.82087404 0.53328967 0.23379505
0.9352296 0.55580151 0.20928195
1.0717156 0.56080103 0.24402417
1.1515869 0.5456636 0.21609843
-0.901739 0.60952199 0.209282
-0.86820948 0.65593445 0.209282
-0.74005193 0.640338 0.23379506
-0.6933139 0.69137686 0.23379502
0.56248403 0.69699073 0.22091401
0.66008323 0.60536295 0.22091401
0.74838084 0.63093758 0.23379505
0.86745417 0.65658915 0.20928195
0.96872777 0.66346669 0.23840046
1.0547256 0.6538583 0.23119195
1.1187884 0.63392812 0.20976064
-1.0160716 0.751647 0.2180365
-0.64123321 0.73917371 0.23379508
-0.57484674 0.78034747 0.23227957
-0.43735367 0.78127885 0.22091401
0.42874652 0.78496277 0.22091401
0.54536521 0.71655631 0.22167167
0.61064178 0.7653628 0.233795
0.78507805 0.7537744 0.20928201
0.81698799 0.71902627 0.209282
0.9605732 0.7503289 0.24074879
1.0387707 0.74525356 0.21370555
-0.97147834 0.84682006 0.20279799
-0.85928905 0.85659027 0.24266502
-0.7205596 0.81574368 0.20928201
-0.66105527 0.86446667 0.209282
-0.53252381 0.82137108 0.23379505
-0.4441545 0.8720963 0.23379509
-0.34402332 0.83541799 0.22217679
-0.24991624 0.85955715 0.22091393
-0.15007687 0.88250518 0.22091393
-0.04952921 0.89380395 0.22091393
0.038603619 0.89445955 0.22091395
0.16373801 0.88055599 0.22091401
0.26248002 0.85607165 0.22091402
0.36320859 0.82779831 0.22224648
0.41500586 0.87508452 0.2321849
0.66197914 0.86347759 0.20928197
0.7373696 0.83823717 0.21880151
0.97394609 0.83768731 0.20972182
1.0048163 0.80552047 0.20524785
-0.8135705 0.99585849 0.2101475
-0.78632402 0.95894003 0.233275
-0.54304254 0.94302422 0.20928197
-0.47245485 0.98030591 0.20928201
-0.3442381 0.91626215 0.23379506
-0.25100189 0.94593877 0.23379506
-0.14966007 0.96718675 0.23379506
-0.049421228 0.97746897 0.23379506
0.050129995 0.97743762 0.23379506
0.13505457 0.96948582 0.23379503
0.2432147 0.94773638 0.23379502
0.34872302 0.91446364 0.23379499
0.46695355 0.9829067 0.20928197
0.50268799 0.96537745 0.209282
0.78152061 0.94204527 0.23890899
0.84131545 0.96270454 0.21253216
0.90934402 0.91323501 0.20279799
-0.7550655 1.0441225 0.20279799
-0.65919703 1.0346136 0.23796999
-0.54653203 1.0833287 0.24266502
-0.41063797 1.007941 0.20928201
-0.34783202 1.0309309 0.20928195
-0.25083572 1.0587194 0.20928195
-0.15006834 1.0776043 0.20928195
-0.049225517 1.0869356 0.20928195
0.047641363 1.0870045 0.20928197
0.1567688 1.0766783 0.20928203
0.26392314 1.0553927 0.209282
0.35183334 1.0295349 0.20928197
0.4224796 1.0151836 0.21308981
0.592296 1.0895123 0.233275
0.61252403 1.07824 0.23327497
0.77977806 1.0238101 0.20680682
0.8051132 1.0039247 0.20769767
-0.52713752 1.1654952 0.21345145
-0.42037663 1.1532927 0.23775661
-0.35049304 1.1758759 0.23780231
-0.25020552 1.1738746 0.24736011
-0.14902596 1.1909817 0.2473601
-0.069277115 1.1985008 0.24736001
0.068542831 1.1985283 0.24736002
0.12433039 1.194057 0.24736002
0.45491654 1.1766206 0.22285926
0.54837769 1.1517309 0.21499424
0.62258923 1.124956 0.21049747
-0.4172129 1.2149062 0.21329731
-0.3437472 1.2337514 0.21346402
-0.24877861 1.2448016 0.2182371
-0.14987925 1.2614609 0.21785666
-0.046551485 1.2608567 0.22151215
0.046338066 1.2605751 0.22171554
0.12163111 1.2653697 0.21731883
0.26555857 1.2602187 0.20443122
0.35531545 1.2372942 0.2054705
0.43396419 1.2110742 0.20831011
