# .PCD v0.7 - Point Cloud Data file format
VERSION 0.7
FIELDS x y z
SIZE 4 4 4
TYPE F F F
COUNT 1 1 1
WIDTH 337
HEIGHT 1
VIEWPOINT 0 0 0 1 0 0 0
POINTS 337
DATA ascii
6.6043382 -9.6273556 -0.24129499
6.2185411 -9.2527657 -0.22121
6.2229028 -8.9532661 -0.21187299
6.2362685 -8.8634157 -0.20935735
6.3424921 -8.8849001 -0.21236849
7.3258185 -8.8530073 -0.23428266
6.2803488 -8.7403355 -0.28396201
7.182332 -8.4175968 -0.21804699
7.1094341 -8.2537031 -0.211492
6.2968531 -9.6446962 -0.112194
6.3628588 -9.6132669 -0.112469
6.2188058 -9.5412903 -0.171859
6.4908352 -9.5281467 -0.17648099
6.0473595 -9.4571819 -0.1041365
6.1115165 -9.4265728 -0.104384
6.2422671 -9.4964218 -0.107959
6.314043 -9.4752893 -0.108564
6.1186919 -9.3225403 -0.164002
6.2982178 -9.3246059 -0.104879
6.3261528 -9.3097153 -0.136196
6.1463981 -9.2058716 -0.16129567
6.2353659 -9.2946148 -0.103229
6.3339496 -9.2427006 -0.1345565
6.421711 -9.2545795 -0.105209
6.1583071 -8.9163246 -0.153604
6.2516232 -8.9012852 -0.154957
6.3826962 -8.9382772 -0.158457
6.1917162 -8.8748999 -0.153109
7.273891 -8.8715191 -0.110929
6.172596 -8.7295551 -0.148817
6.1849709 -8.6889153 -0.14795899
6.2142148 -8.6434164 -0.14729901
7.065639 -8.5638962 -0.100754
7.0620751 -8.4613476 -0.159711
7.1464758 -8.4704332 -0.100204
7.2267857 -8.4660559 -0.10154234
6.9264755 -8.3648186 -0.154396
7.0446987 -8.3598118 -0.156773
7.1381369 -8.3104982 -0.1575325
7.2593479 -8.3986912 -0.162352
7.141777 -8.2096081 -0.15508901
7.2323341 -8.2353029 -0.15769699
6.1735282 -9.580493 -0.026844
6.4446759 -9.5670519 -0.029651999
5.9415922 -9.4791193 -0.022570498
6.0287333 -9.4634666 -0.023248669
6.1027298 -9.4048223 -0.023058999
6.3154869 -9.4706783 -0.0265595
6.1712828 -9.3168392 -0.022326
6.075573 -9.2984266 -0.020942001
6.1124182 -9.291007 -0.021227
6.1782598 -9.0815935 -0.057942502
6.2530546 -8.9328289 -0.055978499
6.2561641 -8.8402853 -0.062118202
6.3178158 -8.8318787 -0.054997999
7.0674739 -8.895503 -0.026110999
6.9895401 -8.7402716 -0.022652
6.9943943 -8.6761074 -0.0216955
7.0692821 -8.6991034 -0.023018001
7.1028862 -8.6846066 -0.023221999
7.2827249 -8.6523104 -0.025053
6.5447741 -8.5393753 -0.05257
7.152483 -8.5514507 -0.021776501
7.2015982 -8.5009766 -0.021633999
7.3327761 -8.5467987 -0.024076
6.5611 -8.4301186 -0.037913166
6.6475611 -8.4565639 -0.091238998
7.0756178 -8.4672585 -0.098884001
7.2127419 -8.4600163 -0.021145999
7.3200846 -8.4508018 -0.022428
6.2950611 -9.6515331 0.032202002
5.849822 -9.3414106 0.0237248
5.9844942 -9.3688259 0.038307998
5.980597 -8.955781 0.043542001
6.6305389 -8.9805231 0.037616
5.9845438 -8.8712292 0.0445645
6.0528975 -8.8453712 0.022151833
6.1301403 -8.826107 0.0219815
6.2539902 -8.7703514 0.032738749
6.5055528 -8.7545586 0.041466001
6.9254699 -8.7882195 0.037225001
7.2519908 -8.7687511 0.034368001
6.0212631 -8.6886749 0.046519
6.5633221 -8.6360664 0.028115332
6.9662971 -8.6431656 0.038548999
7.1868534 -8.6213894 0.036698997
6.4223027 -8.56147 0.033490747
7.1787271 -8.5434437 0.037675999
7.2805243 -8.5817957 0.036247499
7.2406602 -8.4541912 0.038097002
7.3323479 -8.4530277 0.037209999
7.3635006 -8.3820324 0.037706502
6.0470042 -9.7353716 0.174564
6.0237322 -9.6378603 0.107034
6.2959352 -9.5571146 0.17460801
5.8491697 -9.4538183 0.14248
5.9742918 -9.4255819 0.108826
6.116169 -9.4844179 0.10773
5.7863908 -9.3873787 0.109975
5.8476362 -9.3505974 0.175763
5.9225388 -9.3539734 0.14921401
6.0515141 -9.3190107 0.109244
5.967927 -9.2722225 0.15382534
6.0414991 -9.239604 0.109871
6.1134787 -9.2545033 0.1094185
6.2884889 -9.2019777 0.108948
6.7496619 -9.2339544 0.17462668
5.9371901 -9.1392899 0.17612401
6.0573668 -9.1034222 0.176024
6.3961372 -9.1421309 0.108844
6.423089 -9.114728 0.17542399
6.9584932 -9.1644077 0.15166368
7.034164 -9.1616182 0.17431401
6.0099268 -9.0940847 0.176118
6.964232 -9.0777988 0.106372
7.0097761 -9.0780773 0.106128
5.956049 -8.9533749 0.11236
6.4664402 -8.969552 0.109714
5.9700727 -8.8826618 0.14472675
6.0299702 -8.8506088 0.1766485
6.1792369 -8.82897 0.17646199
6.2503572 -8.8730555 0.11149
6.345109 -8.8726597 0.1435045
6.7664609 -8.876564 0.108809
6.8660979 -8.8047943 0.108774
5.9692049 -8.7473621 0.14533
6.0255671 -8.7263222 0.17693999
6.1079378 -8.7860413 0.176673
6.7452421 -8.730319 0.175752
6.9413228 -8.7302866 0.108879
7.1367378 -8.7153091 0.175108
7.2403111 -8.7348375 0.107208
5.9801798 -8.6749706 0.114249
6.0477509 -8.6999521 0.113735
6.6790619 -8.6171541 0.17611299
6.787847 -8.6476383 0.110271
6.8852382 -8.6036234 0.110045
7.2526054 -8.6660185 0.107599
7.4252181 -8.649498 0.106738
6.4251785 -8.584609 0.112627
6.6564479 -8.5903339 0.111368
7.261075 -8.5660305 0.10821734
7.4491458 -8.534976 0.17493001
7.1850648 -8.4719725 0.175541
7.2596054 -8.451664 0.17544949
7.3617792 -8.4511166 0.1417945
6.5495834 -8.3694191 0.17687601
6.6520567 -8.3438644 0.17675525
6.7733812 -8.3535042 0.17652351
7.2389941 -8.3876276 0.175621
5.7619591 -9.4411297 0.29628801
5.804203 -9.4434004 0.296482
5.9728508 -9.4201488 0.232783
5.749938 -9.3247776 0.23231849
5.8395791 -9.3037128 0.29567599
5.925447 -9.3583279 0.2964175
5.7636123 -9.2698355 0.25327301
5.8757281 -9.200345 0.29512799
5.9658527 -9.2446632 0.29582101
6.0425191 -9.2353916 0.29609501
5.771234 -9.1642876 0.23202699
6.7704139 -9.1699228 0.29901201
7.0113149 -9.1009464 0.29973701
5.7907605 -9.0523996 0.23183051
5.8334036 -9.0094833 0.23179999
5.9476724 -9.0299187 0.24755651
6.0340738 -9.036377 0.29471967
6.3030152 -9.0054703 0.23240501
6.0450778 -8.961894 0.23198
6.1191759 -8.9192476 0.29432201
6.399312 -8.9599342 0.29588601
6.5624099 -8.9480457 0.296579
6.7593307 -8.9645615 0.26523352
5.9351301 -8.8381109 0.23159701
6.0550728 -8.8708477 0.27821651
6.1447029 -8.8471699 0.27322069
6.2371206 -8.8211918 0.2942175
6.6355519 -8.8159533 0.232503
6.0569448 -8.7989168 0.231681
6.1878085 -8.7664576 0.262665
6.2511435 -8.7390709 0.24732324
6.3635683 -8.7645082 0.27361101
6.4197021 -8.784318 0.232143
6.0403109 -8.6863928 0.231443
6.2606091 -8.6798601 0.231728
7.2236052 -8.679883 0.29815799
7.0518146 -8.5831404 0.29667503
7.1382642 -8.5505419 0.29691699
6.4768257 -8.4643841 0.23162499
6.5780768 -8.4042778 0.29316199
6.6230669 -8.4070921 0.29340401
6.7616019 -8.4451952 0.29433799
6.935565 -8.4167213 0.23220401
7.0487738 -8.4457741 0.23242466
7.1477528 -8.4537125 0.29636902
7.2532878 -8.4294167 0.296772
6.5100479 -8.3705721 0.231499
7.0302539 -8.3430243 0.23221301
7.2512703 -8.3429909 0.29623502
7.3613539 -8.353919 0.29688501
6.3849831 -8.2625494 0.231121
6.4509435 -8.2136326 0.2311255
6.5762672 -8.2537718 0.26181751
6.6452522 -8.2399483 0.2467145
7.0544524 -8.2656393 0.23211233
7.1631708 -8.2609596 0.232269
7.3035159 -8.2122583 0.2324
6.4520068 -8.16187 0.231032
6.6640072 -8.1376724 0.231298
7.141871 -8.1840782 0.23210099
7.2406979 -8.1931114 0.232269
5.8955231 -9.2869339 0.370507
6.9989219 -9.2036171 0.30033401
6.8543444 -9.1281071 0.37664998
6.9482112 -9.1968842 0.300044
7.0328741 -9.1436205 0.300116
5.8798318 -9.0712948 0.367695
5.9356213 -9.0635729 0.36804998
6.6432972 -9.0519857 0.373882
6.8822699 -9.0167236 0.37558448
5.9362311 -8.9410219 0.36654001
6.6041808 -8.9392328 0.37219501
6.9280787 -8.9740086 0.37549549
5.833529 -8.8459196 0.36452699
5.9610491 -8.8570156 0.36571151
6.0488787 -8.8518772 0.366377
6.57513 -8.8412838 0.370774
5.9110708 -8.7822428 0.36437899
6.0743303 -8.7553844 0.36541551
6.1327071 -8.7219944 0.365504
6.0084972 -8.659955 0.36369801
6.0853596 -8.5488815 0.36300737
6.160121 -8.5305576 0.36343151
7.0310392 -8.4155836 0.370004
7.2140918 -8.4178638 0.37178001
6.678793 -8.3599443 0.36606699
6.700644 -8.3603878 0.366274
6.8355579 -8.3126783 0.36698401
6.9612632 -8.3852119 0.36899701
7.0416641 -8.3478985 0.36933798
7.2248702 -8.3769522 0.371425
6.4434109 -8.2756243 0.362928
6.523592 -8.2176733 0.362988
6.6943278 -8.298749 0.365504
6.7289534 -8.2616558 0.36540049
6.8387551 -8.2633772 0.366451
7.0492659 -8.2772484 0.368613
7.180603 -8.2989168 0.37012199
6.4176311 -8.1624737 0.36137402
5.8898921 -9.3799419 0.43317401
5.9431558 -9.3366623 0.44832551
5.7966971 -9.2090073 0.489705
5.83881 -9.243906 0.49104899
5.9515753 -9.2257881 0.47191867
6.2128611 -9.2054234 0.43378401
5.9319448 -9.1464825 0.45999098
6.092627 -9.1512127 0.431508
6.2728539 -9.1694756 0.43386501
6.3767381 -9.165844 0.43500301
6.924964 -9.133275 0.441017
5.8582101 -9.0134249 0.42655
5.943944 -9.0551414 0.45819348
6.044426 -9.0644417 0.46992502
6.1233883 -9.0472383 0.46043649
6.337595 -9.0492916 0.432605
6.8190088 -9.0529413 0.438416
5.9476309 -8.99545 0.427241
6.0913048 -8.9129057 0.48748401
6.1382217 -8.9970398 0.48996401
6.2908478 -8.9232893 0.42996401
6.7268462 -8.9896116 0.43626201
7.0225248 -8.9951401 0.44000101
5.9049139 -8.8770266 0.48402199
6.1438961 -8.8573637 0.46704134
6.0599132 -8.7184343 0.482885
6.1766167 -8.7040424 0.4249855
6.6837168 -8.7638435 0.462661
6.0858841 -8.6392555 0.481594
6.1106882 -8.616828 0.48148999
6.2309918 -8.6935234 0.42545301
6.3982072 -8.6086054 0.42606199
6.4553452 -8.6354179 0.487122
6.546772 -8.6441889 0.48872399
6.642396 -8.6773758 0.43016699
6.7707281 -8.6183395 0.43081701
6.805922 -8.6156006 0.492237
6.0583749 -8.5142021 0.47854501
6.1579275 -8.5660782 0.4517355
6.2719555 -8.5536537 0.453062
6.3434787 -8.5933924 0.44498166
6.4405012 -8.5590801 0.48531401
6.629868 -8.5772572 0.428399
6.937603 -8.5232954 0.431427
7.2375054 -8.5563288 0.43583602
6.1519942 -8.4756012 0.47914833
6.484477 -8.4503317 0.48376399
6.636065 -8.4541597 0.48624399
6.799818 -8.4084902 0.42785001
7.2660599 -8.4280262 0.43423051
6.4668264 -8.3452368 0.48133501
6.7518187 -8.3715134 0.46651036
6.868371 -8.3614054 0.45801148
6.9465609 -8.3722744 0.429171
6.692266 -8.2816038 0.48366001
6.8277011 -8.2223434 0.4846935
6.1494312 -9.7616034 0.57787597
6.1198878 -9.6478453 0.574296
6.113101 -9.5051203 0.570333
6.2163219 -9.5168228 0.57244253
6.1189408 -9.4490118 0.56892699
6.2542276 -9.4608068 0.571612
5.9892621 -9.3779259 0.56477302
6.230731 -9.3300362 0.56771302
6.3510489 -9.2873268 0.56873602
6.1680641 -9.1433697 0.5616405
6.212523 -9.1470861 0.562536
6.9117956 -9.119875 0.57487148
6.2198248 -9.0355444 0.55972302
6.1807699 -8.9191828 0.55595201
6.336483 -8.9320707 0.55914801
6.7532239 -8.9991236 0.56873602
7.1480532 -8.9924297 0.50536102
7.2029572 -8.9943943 0.57742798
6.522306 -8.8072491 0.55940402
6.0687442 -8.7000446 0.548154
6.0830979 -8.6338329 0.54668403
6.1492434 -8.6836815 0.549209
6.1618462 -8.5445442 0.54582095
6.2459259 -8.5192604 0.54674798
6.3378062 -8.5035429 0.54808998
6.5342979 -8.5405045 0.5528205
6.177803 -8.4823866 0.54451102
6.2188921 -8.4547901 0.54457498
6.5209045 -8.4133158 0.54933655
6.5166001 -8.3267384 0.547068
6.6241932 -8.3641233 0.55013573
6.900805 -8.2680492 0.55333197
