# .PCD v.7 - Point Cloud Data file format
VERSION .7
FIELDS x y z
SIZE 4 4 4
TYPE F F F
COUNT 1 1 1
WIDTH 1602
HEIGHT 1
POINTS 1602
DATA ascii
-4.827918 -11.336895 0.000000
-5.090655 -10.399708 0.000000
-5.531785 -9.741560 0.000000
-5.697119 -8.885705 0.000000
-6.060920 -8.315391 0.000000
-6.224976 -7.639610 0.000000
-3.540463 -8.842552 0.000000
-3.746061 -8.081701 0.000000
-4.153992 -7.686140 0.000000
-4.344550 -7.110386 0.000000
-4.685125 -6.689027 0.000000
-4.808723 -6.139798 0.000000
-3.011955 -7.116802 0.000000
-3.191651 -6.565106 0.000000
-3.572220 -6.292451 0.000000
-3.624951 -5.668971 0.000000
-3.998315 -5.429811 0.000000
-4.114770 -5.016586 0.000000
-2.390230 -6.054138 0.000000
-2.577691 -5.645082 0.000000
-2.878784 -5.341949 0.000000
-3.021720 -4.960894 0.000000
-3.309643 -4.692604 0.000000
-3.462931 -4.406231 0.000000
-2.143680 -5.135136 0.000000
-2.290184 -4.765755 0.000000
-2.576693 -4.537089 0.000000
-2.718741 -4.254492 0.000000
-31.519131 -55.891335 2.260688
-0.490338 -0.847518 0.233795
-37.664863 -56.611146 1.589979
-38.612857 -53.656949 1.186298
-29.816915 -61.386336 0.757098
-26.506358 -49.796811 0.338446
-30.127926 -51.880886 0.039850
-0.608813 -1.008601 0.195704
-0.706408 -0.987840 0.187253
-36.606334 -49.444876 0.000000
-0.552863 -1.117071 0.170392
-31.578601 -61.158120 0.000000
-33.447137 -59.505910 0.000000
-30.924428 -51.447287 0.000000
-32.526383 -48.934125 0.000000
-31.712689 -44.083992 0.000000
-22.769363 -46.873883 0.000000
-19.717078 -36.982020 0.000000
-18.202250 -31.368055 0.000000
-18.180645 -28.739234 0.000000
-17.928812 -26.214806 0.000000
-18.354845 -24.820097 0.000000
-11.630460 -24.758539 0.000000
-11.628512 -22.594581 0.000000
-11.853529 -21.074760 0.000000
-11.932694 -19.476323 0.000000
-12.091934 -18.176794 0.000000
-12.314910 -17.153456 0.000000
-8.513903 -17.507311 0.000000
-8.593191 -16.145838 0.000000
-8.864785 -15.254229 0.000000
-8.966477 -14.205968 0.000000
-7.188151 -13.178310 0.000000
-7.411765 -12.037004 0.000000
-7.782838 -11.107296 0.000000
-7.970298 -10.171314 0.000000
-4.866590 -11.328890 0.000000
-5.124169 -10.385419 0.000000
-5.552695 -9.707147 0.000000
-5.727128 -8.871037 0.000000
-6.093898 -8.305746 0.000000
-6.253889 -7.626015 0.000000
-3.561008 -8.813388 0.000000
-3.770606 -8.068143 0.000000
-4.172613 -7.662873 0.000000
-4.360784 -7.086890 0.000000
-4.700609 -6.666415 0.000000
-4.825605 -6.121662 0.000000
-3.029832 -7.096750 0.000000
-3.210571 -6.551634 0.000000
-3.579797 -6.259734 0.000000
-3.640680 -5.654382 0.000000
-4.010881 -5.411144 0.000000
-4.117266 -4.987724 0.000000
-2.409924 -6.048346 0.000000
-2.595412 -5.636956 0.000000
-2.901720 -5.344358 0.000000
-3.030451 -4.940340 0.000000
-3.332875 -4.694281 0.000000
-3.480205 -4.399651 0.000000
-2.158391 -5.124985 0.000000
-2.303534 -4.755257 0.000000
-2.587350 -4.522636 0.000000
-2.731104 -4.244412 0.000000
-27.161738 -47.805386 1.967052
-0.492998 -0.845973 0.233795
-37.963744 -56.673676 1.594409
-38.765963 -53.514340 1.185913
-29.704675 -60.668971 0.751506
-26.663603 -49.715062 0.338451
-30.382575 -51.943125 0.039345
-40.663785 -63.728827 -0.452020
-35.183845 -51.104925 0.000000
-0.736894 -1.031441 0.179354
-0.556370 -1.115328 0.170392
-0.426233 -0.874693 0.172183
-27.045613 -47.754684 0.000000
-32.577935 -53.812148 0.000000
-33.641384 -50.269709 0.000000
-31.737333 -43.827323 0.000000
-23.090138 -47.157197 0.000000
-19.825591 -36.905842 0.000000
-18.291651 -31.295216 0.000000
-18.284777 -28.703829 0.000000
-18.037034 -26.196125 0.000000
-18.439868 -24.771897 0.000000
-11.714981 -24.736280 0.000000
-11.703103 -22.565000 0.000000
-11.926521 -21.049535 0.000000
-12.005314 -19.457328 0.000000
-12.157797 -18.151926 0.000000
-12.371063 -17.117900 0.000000
-8.561895 -17.466228 0.000000
-8.642930 -16.117019 0.000000
-8.907674 -15.217759 0.000000
-9.013185 -14.181065 0.000000
-7.229513 -13.155664 0.000000
-7.446414 -12.008641 0.000000
-7.817691 -11.082793 0.000000
-8.003431 -10.147767 0.000000
-4.898273 -11.304537 0.000000
-5.162024 -10.379779 0.000000
-5.584133 -9.691352 0.000000
-5.753900 -8.851369 0.000000
-6.116502 -8.281855 0.000000
-6.287741 -7.618295 0.000000
-3.590858 -8.807551 0.000000
-3.800909 -8.066741 0.000000
-4.200355 -7.656502 0.000000
-4.384044 -7.074788 0.000000
-4.723739 -6.654753 0.000000
-4.847202 -6.109465 0.000000
-3.047613 -7.076655 0.000000
-3.229438 -6.538109 0.000000
-3.602268 -6.253402 0.000000
-3.659460 -5.644501 0.000000
-4.034595 -5.407617 0.000000
-4.142581 -4.986307 0.000000
-2.428913 -6.040745 0.000000
-2.612313 -5.627084 0.000000
-2.917608 -5.333579 0.000000
-3.055774 -4.946532 0.000000
-3.345469 -4.680771 0.000000
-3.500934 -4.397314 0.000000
-2.170218 -5.108017 0.000000
-2.318461 -4.747998 0.000000
-2.598842 -4.509742 0.000000
-2.748395 -4.241872 0.000000
-27.317731 -47.730238 1.967436
-0.495653 -0.844421 0.233795
-38.146059 -56.560771 1.594571
-38.975140 -53.448835 1.186949
-29.811978 -60.406745 0.749991
-26.956678 -49.884365 0.339123
-30.763705 -52.218004 0.038151
-41.129861 -64.014592 -0.456302
-38.856440 -56.066084 0.000000
-39.563467 -52.739865 0.000000
-0.559870 -1.113575 0.170392
-33.506969 -63.901975 0.000000
-27.177682 -47.638233 0.000000
-31.138803 -51.074616 0.000000
-33.659706 -49.956655 0.000000
-31.777158 -43.593520 0.000000
-23.338778 -47.288549 0.000000
-19.932870 -36.827592 0.000000
-18.403009 -31.259955 0.000000
-18.395331 -28.678117 0.000000
-18.143047 -26.173745 0.000000
-18.530748 -24.731373 0.000000
-11.800333 -24.715533 0.000000
-11.779470 -22.538698 0.000000
-12.001439 -21.027515 0.000000
-12.071629 -19.427950 0.000000
-12.222515 -18.125176 0.000000
-12.444655 -17.106208 0.000000
-8.628983 -17.464148 0.000000
-8.692572 -16.088048 0.000000
-8.963455 -15.203352 0.000000
-9.055551 -14.149354 0.000000
-7.271757 -13.134618 0.000000
-7.487243 -11.990201 0.000000
-7.850194 -11.054966 0.000000
-8.032819 -10.119502 0.000000
-4.938452 -11.299891 0.000000
-5.186672 -10.347775 0.000000
-5.613572 -9.672070 0.000000
-5.778460 -8.828362 0.000000
-6.147118 -8.268861 0.000000
-6.304168 -7.589556 0.000000
-3.619973 -8.799818 0.000000
-3.822891 -8.047784 0.000000
-4.221602 -7.638198 0.000000
-4.408294 -7.064240 0.000000
-4.745732 -6.641447 0.000000
-4.863970 -6.091223 0.000000
-3.078890 -7.088101 0.000000
-3.255942 -6.539841 0.000000
-3.626628 -6.250281 0.000000
-3.677174 -5.632977 0.000000
-4.049308 -5.391890 0.000000
-4.157012 -4.971830 0.000000
-2.448576 -6.034828 0.000000
-2.631575 -5.622228 0.000000
-2.931673 -5.319485 0.000000
-3.062416 -4.922774 0.000000
-3.354792 -4.662711 0.000000
-3.505460 -4.374834 0.000000
-2.185538 -5.099483 0.000000
-2.331735 -4.737421 0.000000
-2.612090 -4.499978 0.000000
-2.756719 -4.225658 0.000000
-29.973464 -51.995637 2.127996
-0.498303 -0.842859 0.233795
-38.377435 -56.520088 1.596522
-0.509088 -0.736899 0.220914
-26.807279 -53.884989 0.692150
-27.151535 -49.869682 0.339310
-30.701179 -51.739173 0.039383
-41.461180 -64.086527 -0.458391
-39.040378 -55.955229 0.000000
-37.435960 -49.581078 0.000000
-0.563366 -1.111811 0.170392
-33.478602 -63.363476 0.000000
-0.618217 -1.024729 0.158345
-31.404753 -51.148466 0.000000
-33.779491 -49.796106 0.000000
-31.681066 -43.176427 0.000000
-23.508530 -47.257906 0.000000
-20.041766 -36.752536 0.000000
-18.513309 -31.222586 0.000000
-18.492909 -28.631906 0.000000
-18.233151 -26.128067 0.000000
-18.619154 -24.687343 0.000000
-11.878776 -24.680136 0.000000
-11.855786 -22.512138 0.000000
-12.072380 -20.998334 0.000000
-12.135767 -19.394982 0.000000
-12.301657 -18.119570 0.000000
-12.514771 -17.089424 0.000000
-8.676750 -17.422747 0.000000
-8.744967 -16.064139 0.000000
-9.003106 -15.161495 0.000000
-9.103176 -14.125819 0.000000
-7.312023 -13.109984 0.000000
-7.525924 -11.968289 0.000000
-7.882600 -11.027044 0.000000
-8.064568 -10.094218 0.000000
-4.973924 -11.284321 0.000000
-5.223587 -10.340160 0.000000
-5.643928 -9.654388 0.000000
-5.809397 -8.815044 0.000000
-6.168413 -8.243263 0.000000
-6.331730 -7.574178 0.000000
-3.643907 -8.779438 0.000000
-3.851514 -8.042702 0.000000
-4.243709 -7.621523 0.000000
-4.427377 -7.045479 0.000000
-4.766572 -6.626506 0.000000
-4.884285 -6.077402 0.000000
-3.099620 -7.074890 0.000000
-3.273890 -6.524485 0.000000
-3.637678 -6.224078 0.000000
-3.690669 -5.615090 0.000000
-4.062830 -5.374615 0.000000
-4.177479 -4.964487 0.000000
-2.464000 -6.018406 0.000000
-2.649223 -5.613933 0.000000
-2.946576 -5.306986 0.000000
-3.083816 -4.922534 0.000000
-3.376966 -4.662664 0.000000
-3.526165 -4.372374 0.000000
-2.210918 -5.114552 0.000000
-2.349065 -4.734970 0.000000
-2.626213 -4.491750 0.000000
-2.772986 -4.221504 0.000000
-30.156713 -51.935805 2.129274
-0.500948 -0.841290 0.233795
-38.598780 -56.463647 1.598107
-37.751373 -51.094946 1.148137
-26.800871 -53.450031 0.688991
-27.306135 -49.780637 0.339301
-30.943529 -51.776417 0.038950
-41.247265 -63.319329 -0.451777
-0.718765 -0.978886 0.187253
-39.085372 -51.427140 0.000000
-0.566856 -1.110036 0.170392
-33.042045 -62.065465 0.000000
-33.749013 -58.314495 0.000000
-32.350729 -52.318625 0.000000
-33.945884 -49.704596 0.000000
-31.805858 -43.062241 0.000000
-23.671169 -47.212384 0.000000
-20.134035 -36.647440 0.000000
-18.612320 -31.165988 0.000000
-18.599084 -28.598729 0.000000
-18.342597 -26.109815 0.000000
-18.706260 -24.641417 0.000000
-11.966654 -24.664201 0.000000
-11.934855 -22.490590 0.000000
-12.145245 -20.972357 0.000000
-12.216793 -19.388677 0.000000
-12.365227 -18.090679 0.000000
-12.574290 -17.058006 0.000000
-8.737647 -17.407817 0.000000
-8.798252 -16.041795 0.000000
-9.055756 -15.141638 0.000000
-9.148584 -14.098810 0.000000
-7.356062 -13.092118 0.000000
-7.562426 -11.942924 0.000000
-7.920641 -11.007027 0.000000
-8.090064 -10.061187 0.000000
-5.014107 -11.279408 0.000000
-5.256043 -10.323700 0.000000
-5.677191 -9.641670 0.000000
-5.832730 -8.790261 0.000000
-6.202449 -8.234751 0.000000
-6.354237 -7.552766 0.000000
-3.675932 -8.778692 0.000000
-3.874223 -8.025346 0.000000
-4.275138 -7.621633 0.000000
-4.451555 -7.034782 0.000000
-4.788485 -6.613058 0.000000
-4.902143 -6.060544 0.000000
-3.117998 -7.056369 0.000000
-3.290909 -6.507384 0.000000
-3.662954 -6.222455 0.000000
-3.714592 -5.612911 0.000000
-4.081966 -5.364838 0.000000
-4.185722 -4.942752 0.000000
-2.482894 -6.010636 0.000000
-2.666036 -5.603900 0.000000
-2.968644 -5.307476 0.000000
-3.096274 -4.908129 0.000000
-3.390514 -4.650534 0.000000
-3.539883 -4.361275 0.000000
-2.221164 -5.094086 0.000000
-2.363103 -4.725938 0.000000
-2.643057 -4.488196 0.000000
-2.786234 -4.212772 0.000000
-0.627999 -1.023285 0.247360
-0.503589 -0.839712 0.233795
-38.907391 -56.533240 1.602821
-37.828110 -50.863812 1.146065
-26.884827 -53.199539 0.687492
-27.587271 -49.920369 0.339903
-30.990591 -51.486991 0.039572
-0.624579 -0.998914 0.195704
-36.452098 -51.548929 0.000000
-39.269826 -51.334271 0.000000
-0.570340 -1.108249 0.170392
-33.232124 -61.952556 0.000000
-33.557861 -57.565752 0.000000
-32.319411 -51.903061 0.000000
-34.082629 -49.569726 0.000000
-32.055427 -43.115903 0.000000
-23.892217 -47.282143 0.000000
-20.245189 -36.577030 0.000000
-18.718347 -31.121046 0.000000
-18.693205 -28.546830 0.000000
-18.431422 -26.061832 0.000000
-18.789629 -24.590441 0.000000
-12.052803 -24.644379 0.000000
-12.013905 -22.468767 0.000000
-12.224065 -20.956440 0.000000
-12.290435 -19.370320 0.000000
-12.421995 -18.051746 0.000000
-12.630182 -17.021606 0.000000
-8.786933 -17.369660 0.000000
-8.844760 -16.007148 0.000000
-9.106333 -15.118206 0.000000
-9.193912 -14.071655 0.000000
-7.392306 -13.060347 0.000000
-7.604158 -11.925751 0.000000
-7.951724 -10.977302 0.000000
-8.117911 -10.031148 0.000000
-5.043124 -11.249265 0.000000
-5.289346 -10.308878 0.000000
-5.702486 -9.615372 0.000000
-5.861402 -8.773514 0.000000
-6.217737 -8.201238 0.000000
-6.376672 -7.531288 0.000000
-3.698993 -8.756371 0.000000
-3.898563 -8.011399 0.000000
-4.301891 -7.613212 0.000000
-4.474671 -7.022383 0.000000
-4.803607 -6.590210 0.000000
-4.926014 -6.051040 0.000000
-3.137835 -7.041298 0.000000
-3.313947 -6.502094 0.000000
-3.681521 -6.209282 0.000000
-3.723764 -5.588651 0.000000
-4.097658 -5.350486 0.000000
-4.203681 -4.932434 0.000000
-2.506054 -6.013220 0.000000
-2.684441 -5.597178 0.000000
-2.985302 -5.298124 0.000000
-3.109674 -4.895256 0.000000
-3.397497 -4.629394 0.000000
-3.548877 -4.344447 0.000000
-2.240813 -5.095507 0.000000
-2.377107 -4.716864 0.000000
-2.658064 -4.481441 0.000000
-2.800466 -4.205501 0.000000
-30.094721 -51.270643 2.109907
-0.504907 -0.838920 0.233795
-37.947986 -54.952952 1.565312
-38.044364 -50.986994 1.149440
-26.951176 -53.123351 0.687186
-27.740406 -50.011612 0.340263
-31.071423 -51.438251 0.039572
-0.626147 -0.997932 0.195704
-38.997507 -54.968225 0.000000
-37.893611 -49.375941 0.000000
-0.572080 -1.107352 0.170392
-26.908452 -49.985692 0.000000
-33.541330 -57.330079 0.000000
-32.337326 -51.750599 0.000000
-34.154778 -49.507908 0.000000
-32.167313 -43.124704 0.000000
-24.163139 -47.632753 0.000000
-20.282243 -36.508570 0.000000
-18.779558 -31.112107 0.000000
-18.741308 -28.522430 0.000000
-18.485004 -26.050737 0.000000
-18.856134 -24.597236 0.000000
-12.091497 -24.625418 0.000000
-12.064261 -22.477898 0.000000
-12.258971 -20.940648 0.000000
-12.327258 -19.361040 0.000000
-12.472856 -18.064916 0.000000
-12.673519 -17.024010 0.000000
-8.814204 -17.355837 0.000000
-8.870854 -15.994966 0.000000
-9.130067 -15.103884 0.000000
-9.212743 -14.052241 0.000000
-7.418643 -13.059029 0.000000
-7.620749 -11.910475 0.000000
-7.972418 -10.969583 0.000000
-8.129931 -10.013814 0.000000
-5.055977 -11.230585 0.000000
-5.303730 -10.297080 0.000000
-5.720568 -9.611449 0.000000
-5.878445 -8.769150 0.000000
-6.234135 -8.196119 0.000000
-6.392279 -7.525697 0.000000
-3.717257 -8.761273 0.000000
-3.906871 -7.996590 0.000000
-4.305325 -7.591321 0.000000
-4.483612 -7.012110 0.000000
-4.813952 -6.582656 0.000000
-4.928213 -6.034419 0.000000
-3.147342 -7.032868 0.000000
-3.327648 -6.503648 0.000000
-3.695128 -6.210030 0.000000
-3.729364 -5.578089 0.000000
-4.104913 -5.342543 0.000000
-4.205280 -4.918698 0.000000
-2.511906 -6.000604 0.000000
-2.694047 -5.594635 0.000000
-2.991801 -5.290180 0.000000
-3.120371 -4.895045 0.000000
-3.412390 -4.634506 0.000000
-3.559220 -4.343127 0.000000
-2.243675 -5.080196 0.000000
-2.387011 -4.718002 0.000000
-2.661408 -4.470987 0.000000
-2.803012 -4.195094 0.000000
-30.379653 -51.385838 2.117705
-0.507540 -0.837330 0.233795
-37.807858 -54.383493 1.554177
-37.912355 -50.478791 1.142246
-27.157948 -53.116793 0.687895
-28.016493 -50.137169 0.340832
-31.195462 -51.278863 0.039772
-0.629279 -0.995960 0.195704
-38.714637 -54.207348 0.000000
-0.754604 -1.018556 0.179354
-0.575556 -1.105550 0.170392
-33.153594 -61.113693 0.000000
-33.634058 -57.076320 0.000000
-32.413485 -51.511824 0.000000
-34.285079 -49.364268 0.000000
-31.946300 -42.549336 0.000000
-24.378014 -47.684620 0.000000
-20.389024 -36.430751 0.000000
-18.892723 -31.078536 0.000000
-18.856144 -28.501639 0.000000
-18.572532 -26.000652 0.000000
-18.932091 -24.536304 0.000000
-12.168794 -24.587312 0.000000
-12.134813 -22.439889 0.000000
-12.337796 -20.924313 0.000000
-12.396611 -19.335590 0.000000
-12.535199 -18.033803 0.000000
-12.743621 -17.006325 0.000000
-8.865078 -17.320999 0.000000
-8.922025 -15.968749 0.000000
-9.171309 -15.064977 0.000000
-9.254657 -14.019934 0.000000
-7.456697 -13.030514 0.000000
-7.657055 -11.884821 0.000000
-8.007998 -10.946076 0.000000
-8.168828 -9.997343 0.000000
-5.101726 -11.237895 0.000000
-5.336051 -10.280368 0.000000
-5.751734 -9.595109 0.000000
-5.899392 -8.740956 0.000000
-6.258671 -8.174946 0.000000
-6.408289 -7.496737 0.000000
-3.745519 -8.751337 0.000000
-3.934551 -7.989475 0.000000
-4.332958 -7.584469 0.000000
-4.503524 -6.994762 0.000000
-4.833474 -6.565952 0.000000
-4.948366 -6.020383 0.000000
-3.174878 -7.035152 0.000000
-3.343669 -6.484717 0.000000
-3.711708 -6.193497 0.000000
-3.756432 -5.580435 0.000000
-4.125121 -5.334112 0.000000
-4.224410 -4.909728 0.000000
-2.531467 -5.994416 0.000000
-2.709963 -5.582790 0.000000
-3.002916 -5.271026 0.000000
-3.135733 -4.885218 0.000000
-3.426931 -4.623764 0.000000
-3.575203 -4.334757 0.000000
-2.261840 -5.078167 0.000000
-2.399307 -4.705611 0.000000
-2.671728 -4.456342 0.000000
-2.815157 -4.184770 0.000000
-30.571583 -51.341690 2.119623
-0.510168 -0.835731 0.233795
-37.894858 -54.144834 1.551210
-37.906639 -50.142562 1.138220
-27.329249 -53.040109 0.687976
-0.511542 -0.960717 0.209282
-30.789456 -50.254348 0.042786
-0.632405 -0.993979 0.195704
-0.729484 -0.970924 0.187253
-38.308684 -49.272609 0.000000
-0.579026 -1.103736 0.170392
-33.592919 -61.461687 0.000000
-33.560385 -56.544062 0.000000
-32.581563 -51.419871 0.000000
-34.436549 -49.251410 0.000000
-32.208714 -42.619173 0.000000
-24.524948 -47.602480 0.000000
-20.491593 -36.345672 0.000000
-19.001700 -31.037754 0.000000
-18.952224 -28.452215 0.000000
-18.668062 -25.961606 0.000000
-19.023753 -24.495578 0.000000
-12.254841 -24.566787 0.000000
-12.214780 -22.419117 0.000000
-12.418666 -20.911109 0.000000
-12.471322 -19.318235 0.000000
-12.599742 -18.005732 0.000000
-12.802966 -16.974123 0.000000
-8.924884 -17.303645 0.000000
-8.973118 -15.942368 0.000000
-9.223748 -15.044536 0.000000
-9.296459 -13.987503 0.000000
-7.498577 -13.008738 0.000000
-7.694352 -11.860709 0.000000
-8.036523 -10.912929 0.000000
-8.196438 -9.967086 0.000000
-5.133751 -11.214670 0.000000
-5.367407 -10.261822 0.000000
-5.778829 -9.571967 0.000000
-5.932323 -8.730433 0.000000
-6.285505 -8.156790 0.000000
-6.443248 -7.489797 0.000000
-3.770701 -8.734181 0.000000
-3.960494 -7.978806 0.000000
-4.358676 -7.574169 0.000000
-4.526527 -6.982191 0.000000
-4.857490 -6.555374 0.000000
-4.966028 -6.003337 0.000000
-3.196962 -7.025144 0.000000
-3.364907 -6.475868 0.000000
-3.729196 -6.178549 0.000000
-3.767539 -5.559235 0.000000
-4.138397 -5.316647 0.000000
-4.242288 -4.899269 0.000000
-2.555387 -5.998543 0.000000
-2.729143 -5.577598 0.000000
-3.020379 -5.263185 0.000000
-3.151064 -4.875344 0.000000
-3.435946 -4.605543 0.000000
-3.581702 -4.315031 0.000000
-2.274058 -5.062642 0.000000
-2.417448 -4.704533 0.000000
-2.687579 -4.451053 0.000000
-2.829313 -4.177400 0.000000
-0.639211 -1.016319 0.247360
-0.512791 -0.834125 0.233795
-38.147635 -54.143250 1.554136
-37.990058 -49.926189 1.136414
-27.561111 -53.080045 0.689120
-0.514557 -0.959105 0.209282
-31.016434 -50.269747 0.042420
-38.546594 -57.387190 -0.395744
-37.109226 -51.273057 0.000000
-0.760988 -1.013795 0.179354
-0.582490 -1.101912 0.170392
-33.345859 -60.557567 0.000000
-33.560560 -56.141521 0.000000
-32.589150 -51.076477 0.000000
-34.564668 -49.105410 0.000000
-32.411393 -42.608342 0.000000
-24.655984 -47.489761 0.000000
-20.570153 -36.218682 0.000000
-19.111654 -30.998292 0.000000
-19.055961 -28.414053 0.000000
-18.770531 -25.931906 0.000000
-19.112889 -24.451380 0.000000
-12.335523 -24.535286 0.000000
-12.288982 -22.387607 0.000000
-12.490407 -20.882238 0.000000
-12.538454 -19.288950 0.000000
-12.661950 -17.974185 0.000000
-12.856224 -16.933821 0.000000
-8.967341 -17.252637 0.000000
-9.017278 -15.903771 0.000000
-9.262665 -15.002003 0.000000
-9.344762 -13.964797 0.000000
-7.538416 -12.983409 0.000000
-7.738060 -11.846372 0.000000
-8.076610 -10.895548 0.000000
-8.231477 -9.945824 0.000000
-5.170592 -11.202054 0.000000
-5.401451 -10.248371 0.000000
-5.811904 -9.558784 0.000000
-5.958613 -8.710148 0.000000
-6.301584 -8.124674 0.000000
-6.460365 -7.462190 0.000000
-3.796581 -8.718733 0.000000
-3.982928 -7.961144 0.000000
-4.379561 -7.555425 0.000000
-4.547381 -6.966329 0.000000
-4.875773 -6.536998 0.000000
-4.987323 -5.990643 0.000000
-3.217433 -7.011589 0.000000
-3.384345 -6.463582 0.000000
-3.745646 -6.161928 0.000000
-3.786056 -5.548931 0.000000
-4.156236 -5.305111 0.000000
-4.261383 -4.890160 0.000000
-2.569078 -5.978393 0.000000
-2.744151 -5.563982 0.000000
-3.038748 -5.256903 0.000000
-3.164326 -4.862321 0.000000
-3.453707 -4.599176 0.000000
-3.601179 -4.310801 0.000000
-2.289951 -5.055473 0.000000
-2.430519 -4.693680 0.000000
-2.697797 -4.436350 0.000000
-2.844478 -4.171474 0.000000
-30.679765 -50.794318 2.106392
-0.515408 -0.832510 0.233795
-38.499051 -54.279283 1.560517
-38.185639 -49.857390 1.137361
-27.868533 -53.262613 0.691570
-27.213976 -47.643396 0.334842
-30.933707 -49.784639 0.043686
-0.638637 -0.989986 0.195704
-0.735570 -0.966322 0.187253
-39.069321 -49.604131 0.000000
-0.585949 -1.100077 0.170392
-33.304987 -60.036589 0.000000
-33.344267 -55.383320 0.000000
-32.775374 -51.014182 0.000000
-34.779925 -49.082993 0.000000
-32.143003 -41.981701 0.000000
-24.888252 -47.571304 0.000000
-20.668949 -36.127915 0.000000
-19.227852 -30.968617 0.000000
-19.152944 -28.365611 0.000000
-18.857761 -25.880870 0.000000
-19.185906 -24.386525 0.000000
-12.426906 -24.524840 0.000000
-12.374680 -22.376730 0.000000
-12.574377 -20.873572 0.000000
-12.613154 -19.271061 0.000000
-12.737842 -17.961876 0.000000
-12.921424 -16.909103 0.000000
-9.031586 -17.243716 0.000000
-9.074087 -15.887396 0.000000
-9.318086 -14.986289 0.000000
-9.394120 -13.943563 0.000000
-7.590095 -12.978429 0.000000
-7.770890 -11.815424 0.000000
-8.117842 -10.879602 0.000000
-8.262680 -9.919917 0.000000
-5.196691 -11.166170 0.000000
-5.434540 -10.233079 0.000000
-5.840886 -9.538810 0.000000
-5.985946 -8.691387 0.000000
-6.339016 -8.120214 0.000000
-6.486335 -7.444783 0.000000
-3.825500 -8.710319 0.000000
-4.008792 -7.950317 0.000000
-4.412948 -7.558315 0.000000
-4.572428 -6.956824 0.000000
-4.903169 -6.530881 0.000000
-5.008587 -5.977875 0.000000
-3.246610 -7.017074 0.000000
-3.404632 -6.452919 0.000000
-3.766955 -6.153376 0.000000
-3.808855 -5.544787 0.000000
-4.172881 -5.292028 0.000000
-4.271738 -4.871109 0.000000
-2.587106 -5.968568 0.000000
-2.765809 -5.563681 0.000000
-3.058036 -5.252170 0.000000
-3.184702 -4.860091 0.000000
-3.477001 -4.600142 0.000000
-3.609934 -4.293848 0.000000
-2.304310 -5.044907 0.000000
-2.446958 -4.689252 0.000000
-2.721146 -4.443420 0.000000
-2.861699 -4.168470 0.000000
-30.816338 -50.660109 2.104986
-0.518021 -0.830886 0.233795
-38.641500 -54.119009 1.559541
-38.814828 -50.349924 1.148818
-26.595814 -50.440912 0.666670
-27.354522 -47.542075 0.334800
-31.259563 -49.958566 0.042797
-0.641744 -0.987975 0.195704
-0.738601 -0.964006 0.187253
-39.222467 -49.478023 0.000000
-0.589402 -1.098230 0.170392
-31.673514 -56.678106 0.000000
-33.379320 -55.049247 0.000000
-32.858364 -50.791900 0.000000
-34.926985 -48.963734 0.000000
-32.371081 -42.005429 0.000000
-25.260789 -47.916804 0.000000
-20.763387 -36.029973 0.000000
-19.327153 -30.911446 0.000000
-19.252055 -28.320136 0.000000
-18.947209 -25.832757 0.000000
-19.274797 -24.341742 0.000000
-12.517441 -24.512288 0.000000
-12.453642 -22.353377 0.000000
-12.645033 -20.842473 0.000000
-12.679104 -19.239632 0.000000
-12.799962 -17.929859 0.000000
-12.989018 -16.887286 0.000000
-9.087557 -17.218769 0.000000
-9.123950 -15.858813 0.000000
-9.366165 -14.958623 0.000000
-9.428976 -13.900907 0.000000
-7.628830 -12.951116 0.000000
-7.811243 -11.795880 0.000000
-8.137829 -10.835133 0.000000
-8.301396 -9.902935 0.000000
-5.229254 -11.144456 0.000000
-5.462020 -10.207335 0.000000
-5.866734 -9.513751 0.000000
-6.014334 -8.674140 0.000000
-6.363294 -8.098727 0.000000
-6.510975 -7.425828 0.000000
-3.852063 -8.696483 0.000000
-4.038153 -7.946293 0.000000
-4.430834 -7.534422 0.000000
-4.591059 -6.937622 0.000000
-4.917899 -6.507771 0.000000
-5.024862 -5.959191 0.000000
-3.259818 -6.987769 0.000000
-3.427586 -6.447225 0.000000
-3.795179 -6.156086 0.000000
-3.826254 -5.532795 0.000000
-4.194153 -5.284823 0.000000
-4.289521 -4.860478 0.000000
-2.608823 -5.967303 0.000000
-2.780741 -5.549965 0.000000
-3.071715 -5.237708 0.000000
-3.189670 -4.834626 0.000000
-3.478083 -4.571482 0.000000
-3.629388 -4.289492 0.000000
-2.321667 -5.040987 0.000000
-2.462534 -4.683155 0.000000
-2.737934 -4.439511 0.000000
-2.870630 -4.153521 0.000000
-31.073848 -50.903481 2.115916
-0.519325 -0.830072 0.233795
-38.625201 -53.916789 1.556006
-0.527445 -0.723874 0.220914
-26.531056 -50.126798 0.664188
-29.852512 -51.690973 0.346104
-31.346496 -49.922960 0.042753
-0.643295 -0.986965 0.195704
-0.740115 -0.962845 0.187253
-39.400999 -49.543080 0.000000
-0.591126 -1.097303 0.170392
-33.294922 -59.357831 0.000000
-33.116905 -54.422957 0.000000
-32.805294 -50.535834 0.000000
-34.993391 -48.894192 0.000000
-32.423574 -41.937162 0.000000
-25.382663 -47.965311 0.000000
-20.792951 -35.950697 0.000000
-19.378857 -30.886122 0.000000
-19.299887 -28.294801 0.000000
-18.998378 -25.817418 0.000000
-19.326650 -24.328583 0.000000
-12.555927 -24.492597 0.000000
-12.499436 -22.352877 0.000000
-12.684979 -20.834480 0.000000
-12.719187 -19.234597 0.000000
-12.841959 -17.929117 0.000000
-13.027669 -16.882559 0.000000
-9.110887 -17.197461 0.000000
-9.141898 -15.832465 0.000000
-9.384397 -14.935507 0.000000
-9.447453 -13.881181 0.000000
-7.642150 -12.927210 0.000000
-7.824290 -11.775396 0.000000
-8.159564 -10.828635 0.000000
-8.305526 -9.876367 0.000000
-5.248416 -11.139782 0.000000
-5.483629 -10.209081 0.000000
-5.885768 -9.511182 0.000000
-6.024598 -8.659887 0.000000
-6.374806 -8.087191 0.000000
-6.517482 -7.409769 0.000000
-3.863368 -8.685101 0.000000
-4.043558 -7.926179 0.000000
-4.437786 -7.519134 0.000000
-4.599811 -6.927203 0.000000
-4.931579 -6.504638 0.000000
-5.034216 -5.951292 0.000000
-3.273203 -6.987838 0.000000
-3.435001 -6.436804 0.000000
-3.793922 -6.132322 0.000000
-3.829517 -5.519027 0.000000
-4.194262 -5.267865 0.000000
-4.299656 -4.856543 0.000000
-2.617445 -5.961477 0.000000
-2.786916 -5.540594 0.000000
-3.079001 -5.231268 0.000000
-3.202414 -4.837321 0.000000
-3.494179 -4.577809 0.000000
-3.633723 -4.280988 0.000000
-2.334161 -5.047357 0.000000
-2.469026 -4.677670 0.000000
-2.736354 -4.421235 0.000000
-2.875070 -4.146041 0.000000
-31.062031 -50.526263 2.105433
-0.521930 -0.828436 0.233795
-38.693851 -53.655669 1.552511
-0.529716 -0.722214 0.220914
-26.727884 -50.117341 0.664865
-30.109346 -51.759404 0.346543
-31.825730 -50.334895 0.041077
-0.646392 -0.984940 0.195704
-0.743136 -0.960515 0.187253
-0.772088 -1.005367 0.179354
-0.594570 -1.095441 0.170392
-33.369043 -59.054596 0.000000
-32.703305 -53.364164 0.000000
-32.870907 -50.290418 0.000000
-35.174819 -48.822932 0.000000
-32.756406 -42.093459 0.000000
-25.492862 -47.809576 0.000000
-20.875618 -35.833498 0.000000
-19.480043 -30.831841 0.000000
-19.409013 -28.263600 0.000000
-19.086494 -25.767223 0.000000
-19.420413 -24.289518 0.000000
-12.640101 -24.467190 0.000000
-12.579374 -22.330824 0.000000
-12.763852 -20.816577 0.000000
-12.781753 -19.197852 0.000000
-12.902854 -17.895135 0.000000
-13.091611 -16.855642 0.000000
-9.189081 -17.214264 0.000000
-9.189591 -15.800247 0.000000
-9.435491 -14.912649 0.000000
-9.492133 -13.853064 0.000000
-7.685743 -12.908233 0.000000
-7.862341 -11.752396 0.000000
-8.193541 -10.802949 0.000000
-8.337783 -9.851726 0.000000
-5.285061 -11.126788 0.000000
-5.509121 -10.179764 0.000000
-5.917677 -9.495968 0.000000
-6.051772 -8.640919 0.000000
-6.395354 -8.061013 0.000000
-6.535559 -7.383452 0.000000
-3.896154 -8.685321 0.000000
-4.077330 -7.930612 0.000000
-4.468248 -7.516782 0.000000
-4.626921 -6.920701 0.000000
-4.950829 -6.487584 0.000000
-5.055379 -5.938357 0.000000
-3.304856 -6.998281 0.000000
-3.458835 -6.432676 0.000000
-3.820152 -6.131676 0.000000
-3.853372 -5.516251 0.000000
-4.211964 -5.256140 0.000000
-4.308603 -4.836012 0.000000
-2.633899 -5.948067 0.000000
-2.808565 -5.540126 0.000000
-3.095419 -5.221570 0.000000
-3.212415 -4.819543 0.000000
-3.505183 -4.562397 0.000000
-3.642340 -4.263970 0.000000
-2.347700 -5.034995 0.000000
-2.481111 -4.665065 0.000000
-2.752139 -4.415716 0.000000
-2.885991 -4.134029 0.000000
-31.197466 -50.391035 2.104027
-0.524530 -0.826793 0.233795
-38.935003 -53.634208 1.555030
-38.780849 -49.497489 1.138545
-26.926805 -50.110666 0.665574
-30.297088 -51.707694 0.346660
-31.971886 -50.216108 0.041138
-0.649483 -0.982904 0.195704
-0.746149 -0.958176 0.187253
-0.775243 -1.002937 0.179354
-0.598008 -1.093568 0.170392
-27.076194 -47.578509 0.000000
-32.736518 -53.043419 0.000000
-33.115553 -50.318721 0.000000
-35.267071 -48.628085 0.000000
-33.026468 -42.166358 0.000000
-25.608942 -47.665935 0.000000
-20.973928 -35.743659 0.000000
-19.585356 -30.783964 0.000000
-19.502243 -28.209046 0.000000
-19.173293 -25.715131 0.000000
-19.502870 -24.236146 0.000000
-12.728827 -24.450328 0.000000
-12.650444 -22.292926 0.000000
-12.838566 -20.791613 0.000000
-12.857510 -19.180691 0.000000
-12.955513 -17.849690 0.000000
-13.151840 -16.823805 0.000000
-9.226248 -17.153860 0.000000
-9.234162 -15.762763 0.000000
-9.479107 -14.877923 0.000000
-9.541229 -13.831307 0.000000
-7.730304 -12.890805 0.000000
-7.899221 -11.727640 0.000000
-8.225053 -10.774023 0.000000
-8.375078 -9.832954 0.000000
-5.319988 -11.110131 0.000000
-5.536365 -10.153822 0.000000
-5.944373 -9.472358 0.000000
-6.081142 -8.625049 0.000000
-6.419434 -8.039358 0.000000
-6.563906 -7.368676 0.000000
-3.917063 -8.658888 0.000000
-4.097750 -7.909191 0.000000
-4.491839 -7.502709 0.000000
-4.648639 -6.906132 0.000000
-4.966527 -6.465896 0.000000
-5.065251 -5.912294 0.000000
-3.321932 -6.977500 0.000000
-3.477199 -6.418438 0.000000
-3.835384 -6.113199 0.000000
-3.867398 -5.499488 0.000000
-4.231991 -5.247303 0.000000
-4.327559 -4.826641 0.000000
-2.655606 -5.946631 0.000000
-2.824241 -5.527955 0.000000
-3.111806 -5.211820 0.000000
-3.230661 -4.814034 0.000000
-3.509380 -4.538156 0.000000
-3.649679 -4.245549 0.000000
-2.365826 -5.032593 0.000000
-2.494012 -4.654036 0.000000
-2.761198 -4.399317 0.000000
-2.902111 -4.129372 0.000000
-30.967750 -49.670071 2.080569
-0.527125 -0.825141 0.233795
-39.268373 -53.737725 1.560720
-38.732963 -49.117978 1.133690
-27.410408 -50.629223 0.671102
-30.016870 -50.863206 0.344629
-40.519546 -63.214814 -0.002041
-0.652567 -0.980859 0.195704
-38.180255 -50.878680 0.000000
-40.167272 -49.540660 0.000000
-0.601440 -1.091684 0.170392
-27.230496 -47.501887 0.000000
-31.628387 -50.887607 0.000000
-33.773716 -50.968698 0.000000
-35.380812 -48.463803 0.000000
-33.061041 -41.938561 0.000000
-25.803176 -47.667785 0.000000
-21.056635 -35.627799 0.000000
-19.686261 -30.729009 0.000000
-19.598742 -28.159092 0.000000
-19.269511 -25.675504 0.000000
-19.595223 -24.194871 0.000000
-12.813880 -24.426095 0.000000
-12.736235 -22.280693 0.000000
-12.910105 -20.761317 0.000000
-12.928833 -19.156661 0.000000
-13.038416 -17.845807 0.000000
-13.208311 -16.787081 0.000000
-9.270666 -17.107348 0.000000
-9.288678 -15.742200 0.000000
-9.524731 -14.846405 0.000000
-9.580110 -13.794777 0.000000
-7.771778 -12.868150 0.000000
-7.938242 -11.706027 0.000000
-8.256465 -10.745006 0.000000
-8.395667 -9.794678 0.000000
-5.355712 -11.095133 0.000000
-5.573915 -10.146665 0.000000
-5.974099 -9.453638 0.000000
-6.108206 -8.605903 0.000000
-6.451951 -8.028276 0.000000
-6.596128 -7.358125 0.000000
-3.945044 -8.648307 0.000000
-4.124375 -7.899703 0.000000
-4.507458 -7.475325 0.000000
-4.663804 -6.881958 0.000000
-4.987983 -6.451785 0.000000
-5.092588 -5.906478 0.000000
-3.330703 -6.939433 0.000000
-3.493672 -6.400811 0.000000
-3.847512 -6.089862 0.000000
-3.875862 -5.474992 0.000000
-4.243720 -5.228105 0.000000
-4.340168 -4.810239 0.000000
-2.672745 -5.934831 0.000000
-2.839006 -5.514084 0.000000
-3.132926 -5.210017 0.000000
-3.243677 -4.800797 0.000000
-3.536036 -4.543213 0.000000
-3.671482 -4.243778 0.000000
-2.380066 -5.021809 0.000000
-2.509496 -4.647782 0.000000
-2.779827 -4.398338 0.000000
-2.912961 -4.117289 0.000000
-31.040780 -49.440457 2.075584
-0.529714 -0.823481 0.233795
-0.755207 -0.983633 0.233275
-38.813681 -48.903676 1.131944
-27.484154 -50.386569 0.669668
-30.206158 -50.818506 0.344764
-32.389724 -50.173920 0.040610
-0.655645 -0.978804 0.195704
-38.368806 -50.796801 0.000000
-0.781529 -0.998046 0.179354
-0.604867 -1.089789 0.170392
-33.465913 -57.944904 0.000000
-32.797873 -52.402897 0.000000
-34.826845 -52.199892 0.000000
-35.686558 -48.561732 0.000000
-33.130525 -41.756312 0.000000
-26.145692 -47.940598 0.000000
-21.132692 -35.501490 0.000000
-19.793495 -30.683784 0.000000
-19.696265 -28.110441 0.000000
-19.354871 -25.621209 0.000000
-19.672391 -24.134739 0.000000
-12.897977 -24.399808 0.000000
-12.819091 -22.262972 0.000000
-12.982633 -20.732462 0.000000
-12.999013 -19.130731 0.000000
-13.104982 -17.819168 0.000000
-13.273318 -16.761048 0.000000
-9.334786 -17.097297 0.000000
-9.346199 -15.726554 0.000000
-9.580965 -14.831387 0.000000
-9.625668 -13.767852 0.000000
-7.806025 -12.833542 0.000000
-7.974975 -11.681032 0.000000
-8.293782 -10.723695 0.000000
-8.430255 -9.772713 0.000000
-5.391394 -11.080020 0.000000
-5.605762 -10.129106 0.000000
-6.004812 -9.436476 0.000000
-6.136348 -8.588257 0.000000
-6.473478 -8.003419 0.000000
-6.608766 -7.325852 0.000000
-3.978636 -8.649982 0.000000
-4.152792 -7.893544 0.000000
-4.540880 -7.477643 0.000000
-4.693026 -6.878376 0.000000
-5.010573 -6.439121 0.000000
-5.104817 -5.883239 0.000000
-3.353312 -6.930658 0.000000
-3.514686 -6.391470 0.000000
-3.875741 -6.092192 0.000000
-3.905186 -5.479692 0.000000
-4.262499 -5.217679 0.000000
-4.352716 -4.793805 0.000000
-2.690606 -5.924693 0.000000
-2.862385 -5.516721 0.000000
-3.143531 -5.190570 0.000000
-3.265042 -4.799758 0.000000
-3.545757 -4.526241 0.000000
-3.682362 -4.229455 0.000000
-2.394261 -5.010986 0.000000
-2.524964 -4.641476 0.000000
-2.795569 -4.392664 0.000000
-2.927997 -4.111058 0.000000
-31.472413 -49.780437 2.092138
-0.532299 -0.821813 0.233795
-0.758293 -0.981255 0.233275
-38.928402 -48.733086 1.131026
-27.658661 -50.329786 0.669942
-0.537009 -0.946717 0.209282
-32.437164 -49.902513 0.041171
-0.658717 -0.976740 0.195704
-0.755146 -0.951102 0.187253
-0.784660 -0.995586 0.179354
-0.608287 -1.087884 0.170392
-33.650791 -57.844672 0.000000
-32.826019 -52.083134 0.000000
-33.466774 -49.823680 0.000000
-35.843680 -48.455814 0.000000
-33.187969 -41.560002 0.000000
-26.348027 -47.952728 0.000000
-21.238975 -35.426376 0.000000
-19.890871 -30.623127 0.000000
-19.789075 -28.054943 0.000000
-19.444899 -25.572979 0.000000
-19.758227 -24.085134 0.000000
-12.989509 -24.387296 0.000000
-12.894962 -22.232912 0.000000
-13.059342 -20.710088 0.000000
-13.065787 -19.099633 0.000000
-13.163252 -17.781107 0.000000
-13.338292 -16.734771 0.000000
-9.378916 -17.050504 0.000000
-9.392496 -15.692022 0.000000
-9.629662 -14.804538 0.000000
-9.676854 -13.748852 0.000000
-7.847329 -12.810642 0.000000
-8.016109 -11.662413 0.000000
-8.327428 -10.697588 0.000000
-8.473829 -9.761000 0.000000
-5.419291 -11.048922 0.000000
-5.633724 -10.104613 0.000000
-6.039679 -9.425806 0.000000
-6.164439 -8.570519 0.000000
-6.505939 -7.992121 0.000000
-6.635677 -7.309361 0.000000
-4.003356 -8.632157 0.000000
-4.176657 -7.878753 0.000000
-4.563346 -7.461693 0.000000
-4.710232 -6.857269 0.000000
-5.027240 -6.418805 0.000000
-5.128331 -5.872928 0.000000
-3.385046 -6.940726 0.000000
-3.536603 -6.383722 0.000000
-3.893842 -6.078385 0.000000
-3.912401 -5.453600 0.000000
-4.282446 -5.208650 0.000000
-4.372853 -4.785644 0.000000
-2.708430 -5.914502 0.000000
-2.873593 -5.496139 0.000000
-3.160784 -5.182263 0.000000
-3.277994 -4.786426 0.000000
-3.557682 -4.512167 0.000000
-3.698071 -4.220627 0.000000
-2.409991 -5.003440 0.000000
-2.540418 -4.635119 0.000000
-2.807406 -4.380786 0.000000
-2.937708 -4.097440 0.000000
-31.811674 -50.142915 2.107734
-0.533589 -0.820976 0.233795
-0.759833 -0.980063 0.233275
-39.617996 -49.436277 1.145532
-27.818753 -50.433418 0.671295
-0.538495 -0.945872 0.209282
-32.622510 -50.015715 0.040627
-0.660250 -0.975704 0.195704
-0.756639 -0.949914 0.187253
-0.786223 -0.994353 0.179354
-26.873828 -50.261635 0.000000
-33.717400 -57.750326 0.000000
-32.739111 -51.764565 0.000000
-33.550577 -49.779335 0.000000
-36.063700 -48.593601 0.000000
-33.144517 -41.372290 0.000000
-26.374189 -47.822112 0.000000
-21.285324 -35.377591 0.000000
-19.936770 -30.588504 0.000000
-19.835421 -28.027079 0.000000
-19.494700 -25.555088 0.000000
-19.807436 -24.067903 0.000000
-13.024987 -24.361595 0.000000
-12.938890 -22.228094 0.000000
-13.103529 -20.708043 0.000000
-13.100274 -19.085634 0.000000
-13.199438 -17.771576 0.000000
-13.380696 -16.733929 0.000000
-9.406641 -17.037489 0.000000
-9.414065 -15.672161 0.000000
-9.651824 -14.787736 0.000000
-9.704152 -13.741703 0.000000
-7.867441 -12.798301 0.000000
-8.033295 -11.648187 0.000000
-8.345429 -10.686049 0.000000
-8.478799 -9.735841 0.000000
-5.443543 -11.054493 0.000000
-5.655348 -10.105992 0.000000
-6.046051 -9.403137 0.000000
-6.175603 -8.557668 0.000000
-6.512346 -7.974338 0.000000
-6.636651 -7.287464 0.000000
-4.012841 -8.617059 0.000000
-4.182633 -7.860251 0.000000
-4.568033 -7.442989 0.000000
-4.716610 -6.843538 0.000000
-5.040859 -6.415440 0.000000
-5.135016 -5.861993 0.000000
-3.395109 -6.933682 0.000000
-3.545694 -6.376498 0.000000
-3.899302 -6.065860 0.000000
-3.912072 -5.435197 0.000000
-4.288232 -5.198996 0.000000
-4.376533 -4.774624 0.000000
-2.713829 -5.901698 0.000000
-2.883097 -5.493269 0.000000
-3.170850 -5.180477 0.000000
-3.281279 -4.775176 0.000000
-3.568185 -4.510938 0.000000
-3.704696 -4.214814 0.000000
-2.415471 -4.994678 0.000000
-2.550361 -4.635912 0.000000
-2.815260 -4.377907 0.000000
-2.950532 -4.101610 0.000000
-32.429316 -50.763935 2.135091
-0.536165 -0.819295 0.233795
-0.762908 -0.977671 0.233275
-39.771841 -49.310023 1.145503
-0.645335 -1.108970 0.217497
-30.312136 -50.097306 0.343447
-0.728598 -1.063087 0.202798
-0.663312 -0.973625 0.195704
-0.759619 -0.947533 0.187253
-0.789342 -0.991878 0.179354
-0.613407 -1.085005 0.170392
-33.814491 -57.501142 0.000000
-32.896196 -51.653034 0.000000
-33.802204 -49.814181 0.000000
-36.158824 -48.403235 0.000000
-33.105004 -41.058189 0.000000
-26.456476 -47.616845 0.000000
-21.354948 -35.242318 0.000000
-20.043692 -30.542407 0.000000
-19.936105 -27.982482 0.000000
-19.588216 -25.511118 0.000000
-19.891848 -24.016294 0.000000
-13.109933 -24.336340 0.000000
-13.014699 -22.197629 0.000000
-13.166383 -20.663422 0.000000
-13.173740 -19.063985 0.000000
-13.269443 -17.749123 0.000000
-13.435689 -16.694901 0.000000
-9.467807 -17.021727 0.000000
-9.461195 -15.639124 0.000000
-9.692807 -14.749065 0.000000
-9.749568 -13.714370 0.000000
-7.901389 -12.763441 0.000000
-8.063082 -11.613190 0.000000
-8.376529 -10.656680 0.000000
-8.508042 -9.707682 0.000000
-5.474768 -11.030301 0.000000
-5.683205 -10.081362 0.000000
-6.075560 -9.384098 0.000000
-6.203605 -8.539801 0.000000
-6.539829 -7.956855 0.000000
-6.668728 -7.276584 0.000000
-4.043167 -8.611440 0.000000
-4.212817 -7.857284 0.000000
-4.590382 -7.426959 0.000000
-4.742492 -6.834998 0.000000
-5.060987 -6.399573 0.000000
-5.154676 -5.847265 0.000000
-3.413515 -6.916120 0.000000
-3.564771 -6.363671 0.000000
-3.928594 -6.069553 0.000000
-3.945867 -5.445798 0.000000
-4.299745 -5.179674 0.000000
-4.397918 -4.767742 0.000000
-2.735486 -5.899968 0.000000
-2.900340 -5.484185 0.000000
-3.192929 -5.180024 0.000000
-3.302636 -4.773968 0.000000
-3.581193 -4.498255 0.000000
-3.714237 -4.199032 0.000000
-2.434337 -4.993684 0.000000
-2.562231 -4.623097 0.000000
-2.828017 -4.367509 0.000000
-2.958053 -4.085013 0.000000
-40.629136 -63.173344 2.610635
-0.538736 -0.817607 0.233795
-0.765976 -0.975270 0.233275
-39.916457 -49.172425 1.145266
-30.995161 -55.372057 0.718516
-0.544427 -0.942470 0.209282
-0.731934 -1.060793 0.202798
-38.879024 -54.129689 -0.374107
-0.762592 -0.945142 0.187253
-0.792454 -0.989394 0.179354
-0.616812 -1.083073 0.170392
-34.082619 -57.542509 0.000000
-33.008699 -51.472032 0.000000
-33.904389 -49.628586 0.000000
-36.333493 -48.319752 0.000000
-33.218711 -40.935392 0.000000
-26.526044 -47.390624 0.000000
-21.441620 -35.135901 0.000000
-20.141735 -30.482622 0.000000
-20.033215 -27.932671 0.000000
-19.677997 -25.462079 0.000000
-19.981237 -23.970507 0.000000
-13.196745 -24.314292 0.000000
-13.094499 -22.173755 0.000000
-13.243019 -20.640379 0.000000
-13.235834 -19.025767 0.000000
-13.325134 -17.707351 0.000000
-13.499325 -16.666477 0.000000
-9.508662 -16.969399 0.000000
-9.510276 -15.609326 0.000000
-9.745629 -14.728456 0.000000
-9.802980 -13.698131 0.000000
-7.944569 -12.743588 0.000000
-8.098391 -11.586190 0.000000
-8.411183 -10.631860 0.000000
-8.542405 -9.685322 0.000000
-5.503272 -11.000752 0.000000
-5.708051 -10.051555 0.000000
-6.109263 -9.371525 0.000000
-6.232711 -8.523415 0.000000
-6.566029 -7.937775 0.000000
-6.687590 -7.251324 0.000000
-4.070199 -8.598697 0.000000
-4.234706 -7.838914 0.000000
-4.614704 -7.414143 0.000000
-4.768366 -6.826362 0.000000
-5.081066 -6.383643 0.000000
-5.174295 -5.832472 0.000000
-3.437759 -6.910502 0.000000
-3.587569 -6.357405 0.000000
-3.943519 -6.050806 0.000000
-3.962955 -5.433376 0.000000
-4.325627 -5.177763 0.000000
-4.401301 -4.741537 0.000000
-2.756371 -5.896457 0.000000
-2.917553 -5.475047 0.000000
-3.200409 -5.155695 0.000000
-3.304814 -4.745363 0.000000
-3.593008 -4.484088 0.000000
-3.724946 -4.184602 0.000000
-2.452419 -4.990968 0.000000
-2.574944 -4.611844 0.000000
-2.842709 -4.360133 0.000000
-2.970870 -4.075701 0.000000
-40.853449 -63.085680 2.612169
-0.541302 -0.815911 0.233795
-0.769036 -0.972859 0.233275
-40.117566 -49.104072 1.146361
-31.606755 -56.051553 0.725704
-0.547385 -0.940756 0.209282
-0.735262 -1.058488 0.202798
-0.669416 -0.969439 0.195704
-0.765557 -0.942742 0.187253
-0.795559 -0.986899 0.179354
-0.620211 -1.081130 0.170392
-33.876884 -56.788131 0.000000
-33.237401 -51.472208 0.000000
-34.064655 -49.528419 0.000000
-36.459803 -48.171919 0.000000
-33.122162 -40.555649 0.000000
-26.597392 -47.169656 0.000000
-21.538293 -35.046281 0.000000
-20.226356 -30.402585 0.000000
-20.120862 -27.869601 0.000000
-19.767663 -25.412729 0.000000
-20.070535 -23.924396 0.000000
-13.278780 -24.283201 0.000000
-13.177332 -22.154724 0.000000
-13.320718 -20.618729 0.000000
-13.313800 -19.010111 0.000000
-13.399843 -17.690749 0.000000
-13.564170 -16.639354 0.000000
-9.574563 -16.961908 0.000000
-9.560302 -15.581061 0.000000
-9.785280 -14.687877 0.000000
-9.847121 -13.668871 0.000000
-7.986656 -12.721916 0.000000
-8.139298 -11.567134 0.000000
-8.445763 -10.606927 0.000000
-8.576711 -9.662842 0.000000
-5.541321 -10.990426 0.000000
-5.746431 -10.045457 0.000000
-6.144015 -9.360469 0.000000
-6.259456 -8.503793 0.000000
-6.583481 -7.908113 0.000000
-6.709010 -7.228859 0.000000
-4.091378 -8.573602 0.000000
-4.259310 -7.825573 0.000000
-4.633895 -7.393061 0.000000
-4.779782 -6.797215 0.000000
-5.101094 -6.367650 0.000000
-5.188750 -5.811916 0.000000
-3.448395 -6.877433 0.000000
-3.607522 -6.346104 0.000000
-3.949043 -6.017709 0.000000
-3.968747 -5.405693 0.000000
-4.346706 -5.169944 0.000000
-4.421334 -4.733167 0.000000
-2.770119 -5.877562 0.000000
-2.935628 -5.467497 0.000000
-3.218550 -5.148782 0.000000
-3.326134 -4.744041 0.000000
-3.609384 -4.475667 0.000000
-3.744252 -4.179714 0.000000
-2.461626 -4.970043 0.000000
-2.586709 -4.598969 0.000000
-2.857383 -4.352708 0.000000
-2.989054 -4.073623 0.000000
-0.677059 -0.991506 0.247360
-0.543862 -0.814206 0.233795
-0.772088 -0.970438 0.233275
-0.548809 -0.707814 0.220914
-0.655757 -1.102839 0.217497
-30.574571 -49.472654 0.342523
-38.535557 -57.496996 0.014253
-0.672458 -0.967331 0.195704
-0.768515 -0.940332 0.187253
-0.798655 -0.984395 0.179354
-0.623604 -1.079176 0.170392
-33.837750 -56.319982 0.000000
-33.255221 -51.146314 0.000000
-34.314534 -49.557461 0.000000
-36.587962 -48.026949 0.000000
-33.244324 -40.445233 0.000000
-26.663674 -46.941764 0.000000
-21.630410 -34.949616 0.000000
-20.327306 -30.347187 0.000000
-20.211831 -27.811093 0.000000
-19.853531 -25.358356 0.000000
-20.153309 -23.870355 0.000000
-13.357874 -24.246602 0.000000
-13.261199 -22.137097 0.000000
-13.389752 -20.583453 0.000000
-13.382625 -18.981174 0.000000
-13.468571 -17.665951 0.000000
-13.620155 -16.601260 0.000000
-9.620955 -16.919673 0.000000
-9.610244 -15.552635 0.000000
-9.841271 -14.671873 0.000000
-9.890011 -13.637870 0.000000
-8.025528 -12.695094 0.000000
-8.171024 -11.535081 0.000000
-8.479041 -10.580344 0.000000
-8.604399 -9.632925 0.000000
-5.581129 -10.983470 0.000000
-5.775996 -10.023967 0.000000
-6.168020 -9.332957 0.000000
-6.283808 -8.480960 0.000000
-6.615770 -7.896366 0.000000
-6.725035 -7.200665 0.000000
-4.119962 -8.564207 0.000000
-4.285742 -7.815540 0.000000
-4.659145 -7.381736 0.000000
-4.814510 -6.800970 0.000000
-5.119872 -6.350097 0.000000
-5.208267 -5.797008 0.000000
-3.478540 -6.883644 0.000000
-3.626488 -6.333092 0.000000
-3.976253 -6.017974 0.000000
-3.993621 -5.403819 0.000000
-4.358072 -5.150484 0.000000
-4.436181 -4.719255 0.000000
-2.788569 -5.868831 0.000000
-2.955476 -5.463166 0.000000
-3.234708 -5.138646 0.000000
-3.346402 -4.741122 0.000000
-3.629218 -4.471510 0.000000
-3.754883 -4.165205 0.000000
-2.479664 -4.967227 0.000000
-2.604777 -4.597160 0.000000
-2.867059 -4.337618 0.000000
-2.994251 -4.054053 0.000000
-37.915588 -57.746715 2.417860
-0.546417 -0.812494 0.233795
-0.775133 -0.968008 0.233275
-0.551030 -0.706086 0.220914
-27.332010 -47.759183 0.650586
-30.666380 -49.274513 0.342243
-40.319296 -59.753631 0.006292
-0.675493 -0.965214 0.195704
-0.771465 -0.937913 0.187253
-41.819645 -49.163796 0.000000
-0.626991 -1.077212 0.170392
-34.134623 -56.411743 0.000000
-33.635612 -51.377779 0.000000
-34.299700 -49.205280 0.000000
-36.832189 -48.033869 0.000000
-33.265503 -40.212944 0.000000
-26.720863 -46.700057 0.000000
-21.716850 -34.844256 0.000000
-20.430335 -30.294763 0.000000
-20.312058 -27.765153 0.000000
-19.949109 -25.316223 0.000000
-20.248852 -23.831199 0.000000
-13.449406 -24.232384 0.000000
-13.337879 -22.107245 0.000000
-13.470660 -20.566253 0.000000
-13.449096 -18.948754 0.000000
-13.525206 -17.625131 0.000000
-13.683626 -16.572150 0.000000
-9.694704 -16.925524 0.000000
-9.661151 -15.525729 0.000000
-9.890628 -14.645810 0.000000
-9.938645 -13.614711 0.000000
-8.069598 -12.676489 0.000000
-8.211810 -11.515769 0.000000
-8.507305 -10.547518 0.000000
-8.631983 -9.602930 0.000000
-5.606699 -10.948401 0.000000
-5.808443 -10.007465 0.000000
-6.199466 -9.316795 0.000000
-6.306909 -8.456496 0.000000
-6.639291 -7.874053 0.000000
-6.750291 -7.182328 0.000000
-4.146845 -8.551222 0.000000
-4.310272 -7.802039 0.000000
-4.684370 -7.370325 0.000000
-4.833608 -6.782686 0.000000
-5.142204 -6.336970 0.000000
-5.226452 -5.780618 0.000000
-3.493258 -6.859042 0.000000
-3.646365 -6.321668 0.000000
-3.996183 -6.007037 0.000000
-4.034415 -5.423034 0.000000
-4.368142 -5.129562 0.000000
-4.460075 -4.714830 0.000000
-2.814229 -5.875307 0.000000
-2.970822 -5.450582 0.000000
-3.248854 -5.125306 0.000000
-3.354793 -4.721543 0.000000
-3.631617 -4.445718 0.000000
-3.769193 -4.154748 0.000000
-2.503433 -4.975857 0.000000
-2.618292 -4.587373 0.000000
-2.888676 -4.340750 0.000000
-3.010236 -4.048971 0.000000
-37.842297 -57.242028 2.403096
-0.548967 -0.810773 0.233795
-0.778170 -0.965569 0.233275
-0.553245 -0.704352 0.220914
-30.199455 -52.392399 0.694470
-30.991074 -49.449008 0.342990
-0.745205 -1.051512 0.202798
-0.678522 -0.963087 0.195704
-0.774408 -0.935485 0.187253
-41.947860 -49.001813 0.000000
-31.792109 -56.864029 0.000000
-34.583333 -56.749638 0.000000
-33.713302 -51.145012 0.000000
-34.536785 -49.215005 0.000000
-36.896297 -47.805622 0.000000
-33.309843 -40.010069 0.000000
-26.802693 -46.503435 0.000000
-21.786915 -34.713356 0.000000
-20.518686 -30.220529 0.000000
-20.392077 -27.691582 0.000000
-20.031012 -25.256555 0.000000
-20.336573 -23.782602 0.000000
-13.529342 -24.196969 0.000000
-13.417607 -22.082227 0.000000
-13.541756 -20.533801 0.000000
-13.523593 -18.927409 0.000000
-13.597471 -17.604574 0.000000
-13.748318 -16.544329 0.000000
-9.731020 -16.865768 0.000000
-9.711983 -15.498658 0.000000
-9.937697 -14.616306 0.000000
-9.984884 -13.588198 0.000000
-8.116817 -12.662724 0.000000
-8.246792 -11.488316 0.000000
-8.544109 -10.525333 0.000000
-8.668714 -9.583041 0.000000
-5.657194 -10.962152 0.000000
-5.841836 -9.992546 0.000000
