# .PCD v0.7 - Point Cloud Data file format
VERSION 0.7
FIELDS x y z
SIZE 4 4 4
TYPE F F F
COUNT 1 1 1
WIDTH 1368
HEIGHT 1
VIEWPOINT 0 0 0 1 0 0 0
POINTS 1368
DATA ascii
0.14220583 -0.0268832 0.69827956
0.1507355 -0.026170574 0.6969707
0.16082862 -0.026179742 0.6955319
0.1709432 -0.02626358 0.69409966
0.18084979 -0.02633344 0.69269532
0.19048528 -0.026438734 0.69133425
0.20190498 -0.026182029 0.68967187
0.21049038 -0.026788549 0.68852526
0.12377806 -0.0193756 0.69993985
0.13015431 -0.016277229 0.69863045
0.14173949 -0.016324665 0.69698364
0.150465 -0.015765948 0.69566673
0.16059281 -0.015882831 0.69423687
0.1707249 -0.016010432 0.69280779
0.18073903 -0.016007097 0.69137859
0.19039255 -0.015839946 0.68997979
0.19822218 -0.013141308 0.68851459
0.21155682 -0.013626782 0.68667465
0.21523683 -0.016404886 0.68650818
0.12186454 -0.0076720733 0.69870269
0.13014412 -0.0053908508 0.69722712
0.14041093 -0.0064174496 0.69589478
0.15032929 -0.0056502335 0.69438076
0.16040319 -0.0056683365 0.69294584
0.17042688 -0.0056621674 0.69151497
0.18059647 -0.0058737863 0.69009137
0.19021307 -0.0059753042 0.6887325
0.19684131 -0.0088465065 0.68815726
0.21127063 -0.0058411155 0.68571091
0.21529755 -0.0047673117 0.6849978
0.1138277 0.0043941103 0.69829232
0.12066807 0.0046807546 0.69727939
0.12986001 0.003910182 0.69606745
0.13995457 0.0039362721 0.69462383
0.15010512 0.0038059596 0.69319248
0.16019088 0.003742002 0.69176185
0.17028029 0.0036431365 0.69033509
0.18023469 0.0037905984 0.68889594
0.19039796 0.0034433268 0.68749076
0.19620287 0.0050941408 0.68644959
0.2126098 0.0023747534 0.68445969
0.21502271 0.0028906539 0.68404877
0.11462227 0.010588916 0.69737959
0.12028347 0.012080379 0.69637948
0.12891638 0.013611119 0.69495022
0.13991521 0.012247935 0.69355696
0.1499754 0.012279432 0.69211763
0.16041656 0.012563858 0.69059128
0.17059758 0.012556814 0.6891396
0.17995527 0.012840871 0.68776792
0.18963982 0.012616467 0.68641526
0.19870505 0.014372129 0.68489528
0.20993397 0.013256084 0.68343735
0.21478082 0.008085642 0.68341297
0.16189572 0.018689431 0.6895898
0.56398749 -0.49235132 0.69816732
0.56658685 -0.49251911 0.69781816
0.56699574 -0.49044743 0.69749248
0.14410979 -0.33744416 0.73808229
0.17419975 -0.33941528 0.7340436
0.18487416 -0.34016067 0.7326169
0.19223906 -0.34045413 0.73160398
0.11728273 -0.3283262 0.74073309
0.12674671 -0.32849759 0.73940492
0.13194008 -0.33031803 0.73889899
0.14465001 -0.33352494 0.73749942
0.16692798 -0.33317947 0.73427641
0.17448261 -0.33150226 0.73298222
0.18435089 -0.33266267 0.73172408
0.19233513 -0.33253923 0.73056901
0.11843945 -0.32584262 0.74024755
0.12579048 -0.32382619 0.73893863
0.13014144 -0.3259694 0.73859441
0.14897022 -0.32182106 0.73537284
0.15359327 -0.32053009 0.73454666
0.16398886 -0.32189256 0.73323935
0.17430294 -0.32293686 0.73190254
0.1845267 -0.32220027 0.73034889
0.19366992 -0.32315043 0.7291671
0.11701787 -0.31364673 0.73887664
0.13406286 -0.3094444 0.73590261
0.14408821 -0.31030351 0.73458302
0.15459502 -0.3129063 0.73341995
0.16501868 -0.31219718 0.73184133
0.17482474 -0.31255132 0.73048794
0.18496951 -0.3128221 0.72907555
0.1939854 -0.31250325 0.7277481
0.11878131 -0.30015495 0.73688412
0.123774 -0.30021033 0.73617893
0.13468283 -0.30265355 0.73493779
0.14415413 -0.30253354 0.73357111
0.15450159 -0.30301833 0.73215741
0.16497652 -0.30255577 0.73060322
0.17449102 -0.30275568 0.72927159
0.18482432 -0.30354372 0.72789896
0.19441967 -0.30279449 0.7264334
0.12556711 -0.29308262 0.73500341
0.13416374 -0.29292086 0.73375601
0.14407006 -0.29254708 0.73229444
0.15429725 -0.29317796 0.73091674
0.1645146 -0.29280031 0.72941023
0.17483234 -0.29313508 0.72798145
0.18435822 -0.29341209 0.72665811
0.1936965 -0.29313231 0.7252897
0.12329318 -0.28009495 0.73365194
0.13503146 -0.28289104 0.73233795
0.14389938 -0.28233999 0.73100173
0.15438962 -0.28291923 0.72957981
0.16421452 -0.28310919 0.72820258
0.1743388 -0.28271326 0.72670704
0.18376447 -0.28335118 0.72544461
0.19333798 -0.28361484 0.72411281
0.19993308 -0.28217965 0.7229867
0.12657873 -0.27266613 0.73222452
0.13440725 -0.27215016 0.73104107
0.14365171 -0.27301785 0.72983414
0.15382089 -0.2725952 0.72832876
0.16431594 -0.27309963 0.72689652
0.17410918 -0.27286536 0.72546911
0.18390714 -0.27345243 0.72414696
0.19318305 -0.27364588 0.72284842
0.19900277 -0.27352846 0.7220031
0.11725955 -0.26030436 0.73195899
0.12556198 -0.26400295 0.73125178
0.13387135 -0.26341146 0.72998989
0.14362562 -0.26286876 0.72852826
0.15360996 -0.26285934 0.72710252
0.16411403 -0.26291201 0.72561073
0.17439373 -0.26303962 0.72416055
0.18414184 -0.26401022 0.72289509
0.19368026 -0.26348183 0.721466
0.19991948 -0.26358163 0.72058874
0.13491684 -0.2522727 0.72840333
0.14309658 -0.25305966 0.7273379
0.15366951 -0.25326157 0.72585559
0.16360396 -0.25309268 0.72441638
0.1739642 -0.25293943 0.72291857
0.1842609 -0.253479 0.72151917
0.19344677 -0.25381681 0.72025228
0.19974327 -0.25385517 0.71935886
0.11439328 -0.24320069 0.73016083
0.12366489 -0.23940724 0.72834861
0.13349193 -0.24303518 0.72741473
0.14338095 -0.24359004 0.72607541
0.15337026 -0.24369642 0.72466397
0.16358913 -0.24360041 0.72319371
0.17373963 -0.24325684 0.72170115
0.1838633 -0.243545 0.72029394
0.19330235 -0.24411678 0.71902114
0.19953333 -0.2442672 0.71815157
0.11818121 -0.23511517 0.72857708
0.12393168 -0.23505943 0.72774947
0.13343823 -0.23408268 0.7262671
0.14301176 -0.23396459 0.724886
0.15318534 -0.23339327 0.7233609
0.16309354 -0.23330303 0.72193563
0.17341614 -0.23333037 0.72046643
0.18399924 -0.23388593 0.71902823
0.19189656 -0.23285608 0.71776861
0.20040736 -0.23365532 0.71665752
0.11327349 -0.22052428 0.72739446
0.12464003 -0.22188054 0.72594786
0.13322628 -0.22360082 0.72494477
0.14260155 -0.22367941 0.72361732
0.15313596 -0.22372608 0.72212046
0.16341434 -0.2243157 0.72073013
0.17348538 -0.22410987 0.71926671
0.18306437 -0.22461464 0.71796525
0.19116268 -0.22448994 0.71679378
0.20153688 -0.22393538 0.71524215
0.11782287 -0.21525474 0.72606546
0.12345377 -0.21348126 0.72503328
0.13341351 -0.21413963 0.72369725
0.14306897 -0.21387063 0.72228503
0.15278906 -0.21451247 0.720981
0.16302517 -0.21422222 0.71948314
0.17314228 -0.21383032 0.71798921
0.18305512 -0.21437465 0.71664518
0.19094971 -0.21376856 0.71544069
0.20345186 -0.21495955 0.71381068
0.11756349 -0.2012862 0.72430003
0.12428861 -0.2037694 0.72366095
0.13363291 -0.20456648 0.72243071
0.1429296 -0.20388722 0.72101665
0.15268008 -0.20429124 0.71967763
0.16288856 -0.20414974 0.71820295
0.17275304 -0.20353451 0.71671629
0.18313061 -0.20318018 0.71518993
0.19100022 -0.20348132 0.71410596
0.20391738 -0.20475478 0.71242744
0.11516991 -0.19355147 0.72364342
0.12340315 -0.19388464 0.72251177
0.13300541 -0.19405106 0.72116321
0.14236468 -0.19395255 0.71981525
0.15222606 -0.1938595 0.71839631
0.16261807 -0.19425792 0.71696508
0.17254911 -0.19422308 0.71554381
0.18368132 -0.19413246 0.71394384
0.19153067 -0.19517091 0.71295798
0.20353597 -0.19637199 0.71140021
0.096535385 -0.17947741 0.72448593
0.10360964 -0.1826565 0.72388679
0.11293413 -0.1836047 0.7226789
0.12319171 -0.18328394 0.721174
0.13346972 -0.18412396 0.71981609
0.14298223 -0.18364699 0.71839738
0.15253416 -0.18407635 0.71709007
0.16239575 -0.18459851 0.71575034
0.17242883 -0.18434146 0.71428573
0.18219291 -0.18490177 0.71296507
0.19007072 -0.18853116 0.71230954
0.20259692 -0.18524007 0.71009773
0.094084792 -0.17298095 0.72399718
0.10260454 -0.17398384 0.72291106
0.11276542 -0.17415753 0.72148383
0.12306908 -0.1743165 0.72003436
0.13329887 -0.17466685 0.71862012
0.14286996 -0.17486984 0.71728086
0.15214473 -0.17431158 0.71588552
0.16218443 -0.17421679 0.71444094
0.17186469 -0.17414252 0.71305025
0.18044548 -0.17533875 0.7119804
0.2048244 -0.17385256 0.70831048
0.20734335 -0.17403543 0.70797467
0.071335584 -0.16520962 0.7262401
0.086806536 -0.16462657 0.7239576
0.092689261 -0.16451767 0.72310424
0.10403547 -0.16620654 0.72170347
0.11257806 -0.1644107 0.72025293
0.12285189 -0.16436546 0.71878123
0.13309664 -0.16423841 0.71730328
0.14265712 -0.16425678 0.71594167
0.1518109 -0.16414547 0.71462131
0.161613 -0.16410245 0.71321726
0.16782938 -0.16112155 0.71194577
0.20490244 -0.16764514 0.70749837
0.20735475 -0.16751027 0.70713109
0.066314764 -0.15706202 0.72590506
0.069396719 -0.15308951 0.7249527
0.086107098 -0.15193632 0.72241974
0.092652425 -0.15398178 0.72174996
0.10293812 -0.1530636 0.720164
0.11239952 -0.15418892 0.71895933
0.122674 -0.15414003 0.71748722
0.13276988 -0.15450285 0.71609366
0.14281939 -0.15461721 0.71467459
0.15292974 -0.15465498 0.71323705
0.16067126 -0.15733002 0.71247774
0.17214225 -0.1531755 0.71030509
0.051157724 -0.14326386 0.72628701
0.06457334 -0.14102961 0.72408462
0.086257428 -0.14372683 0.72133905
0.092893094 -0.14427827 0.72046351
0.10255678 -0.1440872 0.71906018
0.11208327 -0.14451557 0.71775621
0.12249815 -0.14461327 0.71628296
0.1328125 -0.1447842 0.7148335
0.14279635 -0.14490739 0.71342504
0.15210849 -0.14495532 0.71210253
0.16025025 -0.14398722 0.71081609
0.20758605 -0.14229727 0.70384467
0.064814471 -0.13746865 0.72359079
0.085077748 -0.13236855 0.72004175
0.092884049 -0.13495485 0.71926171
0.10135931 -0.13400029 0.7179293
0.11216755 -0.13499033 0.71651512
0.12230656 -0.13492987 0.71506083
0.13253589 -0.13480361 0.71358508
0.14262128 -0.13467589 0.71212965
0.15053783 -0.13342771 0.71083921
0.16061053 -0.13876005 0.71009016
0.17369267 -0.13533255 0.70778149
0.17853595 -0.1339545 0.70691264
0.20748952 -0.13797927 0.70330125
0.075421602 -0.12154736 0.72002304
0.082788765 -0.12443344 0.71934426
0.092595726 -0.12443593 0.71794546
0.1019552 -0.12454768 0.71662462
0.11183728 -0.12437703 0.71519274
0.12210923 -0.1245229 0.71374607
0.13227639 -0.12403791 0.71223289
0.14236671 -0.12418459 0.71081221
0.152178 -0.12568918 0.70960665
0.16144043 -0.12573591 0.70829117
0.044527579 -0.10947838 0.72287333
0.048829388 -0.10955629 0.72226965
0.061833516 -0.11525879 0.72115016
0.072624817 -0.11395907 0.71944278
0.082480133 -0.1142241 0.71807098
0.092799515 -0.11411422 0.71658444
0.10224111 -0.1143906 0.71527314
0.1115178 -0.11466803 0.71398544
0.12191612 -0.11486757 0.71252763
0.13209654 -0.11456951 0.7110368
0.14272967 -0.11524928 0.70960748
0.14941916 -0.11634461 0.70879447
0.21099253 -0.11337133 0.69962609
0.044496413 -0.10775139 0.72265488
0.05085063 -0.10717589 0.72167408
0.063199341 -0.10515515 0.71965152
0.072235934 -0.10488703 0.71832758
0.082321323 -0.10462125 0.71685451
0.092628688 -0.10464504 0.71538699
0.10206362 -0.10458776 0.71403354
0.11160295 -0.10517932 0.71274889
0.12173218 -0.10531963 0.71132189
0.13192369 -0.10511655 0.70984161
0.14215133 -0.10525052 0.70839977
0.14887896 -0.10566524 0.70749342
0.21034379 -0.10723838 0.69892728
0.044571362 -0.091474965 0.72054392
0.053666618 -0.091639668 0.71926755
0.061107926 -0.095473923 0.71870059
0.073912084 -0.095346123 0.71685737
0.08216323 -0.09498252 0.71563327
0.091917098 -0.094990768 0.71424276
0.10129178 -0.095393337 0.71295726
0.11130248 -0.095065236 0.71148664
0.12152527 -0.094865739 0.71000248
0.13173629 -0.094830841 0.7085411
0.14195758 -0.094945312 0.70709759
0.15263678 -0.092985988 0.70532119
0.044657409 -0.088073008 0.72009259
0.057059102 -0.088988148 0.71844137
0.063063368 -0.082554683 0.71675462
0.072078735 -0.08441215 0.71570802
0.081964627 -0.084766448 0.71434331
0.092274621 -0.084734336 0.71286827
0.10170846 -0.084801681 0.71153104
0.11111866 -0.084792987 0.71018732
0.1213628 -0.084733278 0.70871806
0.13144317 -0.084568948 0.7072587
0.14262147 -0.085305892 0.70575905
0.1503403 -0.085504159 0.70468342
0.028355524 -0.071204059 0.72024167
0.039633725 -0.076587588 0.71932733
0.055073522 -0.074277528 0.71682644
0.06264656 -0.075459957 0.71589857
0.071471587 -0.075211808 0.71460748
0.081808589 -0.075138286 0.7131232
0.092111073 -0.075139545 0.71165359
0.10153522 -0.075300373 0.71032965
0.11095728 -0.075440601 0.70900357
0.12118375 -0.075251073 0.70752013
0.13140231 -0.075243548 0.70606124
0.14000678 -0.075938284 0.70492333
0.15119439 -0.076130942 0.70335197
0.15610564 -0.074724168 0.70246983
0.21145299 -0.076408587 0.69479084
0.025280729 -0.06286151 0.7196039
0.030213125 -0.064452156 0.71910536
0.042647023 -0.061762996 0.71698445
0.054262459 -0.065394178 0.71579587
0.061978538 -0.064864144 0.71462655
0.071019143 -0.065758571 0.71345216
0.081620961 -0.065813988 0.71194679
0.09194091 -0.065667249 0.71045548
0.10136551 -0.065926999 0.70914435
0.11077732 -0.065862462 0.7077933
0.12099921 -0.065719038 0.70631647
0.13124049 -0.065846682 0.70487177
0.13953841 -0.066747762 0.70380425
0.15511495 -0.07025823 0.70203489
0.022850595 -0.052113634 0.71856368
0.030552495 -0.054979041 0.71783465
0.042378772 -0.055080894 0.71616048
0.054589376 -0.053970639 0.71427512
0.061795324 -0.055186555 0.71340394
0.071240135 -0.055040076 0.71203756
0.081450269 -0.055335671 0.71061897
0.091758177 -0.055260159 0.70913869
0.10118224 -0.055709671 0.70785213
0.11060238 -0.055668961 0.70650285
0.12084242 -0.0556258 0.70503634
0.13103075 -0.05546644 0.70356226
0.14005259 -0.054078981 0.70209605
0.14797322 -0.052173302 0.70072013
0.014028836 -0.039868876 0.71824217
0.031546861 -0.044595912 0.71635288
0.042153984 -0.043982469 0.71476042
0.052045401 -0.044630565 0.71343279
0.061522383 -0.044690482 0.71208841
0.070984557 -0.044757556 0.71074718
0.081267953 -0.044980977 0.70930886
0.091316774 -0.045208208 0.70790452
0.10099027 -0.045199111 0.7065233
0.11065373 -0.045112513 0.70513344
0.12064472 -0.045243725 0.70372486
0.13084203 -0.045171708 0.70226073
0.14012359 -0.046364389 0.70109051
0.14792693 -0.049607374 0.70039558
-0.023122566 -0.030563962 0.72234195
-0.021401845 -0.030595124 0.7221005
0.0010343678 -0.0347009 0.71942925
0.012749545 -0.035702273 0.71788704
0.024019711 -0.03336757 0.71597791
0.031613711 -0.034399472 0.71502763
0.04123579 -0.03508728 0.71374363
0.051854309 -0.035198644 0.71224308
0.06134472 -0.035246439 0.71089518
0.070791416 -0.03539234 0.70956618
0.081100613 -0.035463829 0.70810467
0.091252744 -0.035379577 0.70664543
0.10081865 -0.035618603 0.70531154
0.11036481 -0.035722334 0.70396292
0.12046515 -0.035752587 0.70252579
0.1306822 -0.035788383 0.70107275
0.13825375 -0.036665879 0.70010573
0.023305874 -0.029678285 0.71560371
0.031541493 -0.026127238 0.71397048
0.041348323 -0.025584832 0.71250129
0.05166864 -0.025752481 0.71105057
0.061158665 -0.025813794 0.70970458
0.070619389 -0.025923207 0.70836896
0.080907613 -0.026163388 0.70693207
0.091224268 -0.026111079 0.70545346
0.10137972 -0.026047394 0.70399636
0.11072015 -0.026106579 0.70267141
0.12015572 -0.026339214 0.70135528
0.13056868 -0.02645894 0.69988513
0.13787358 -0.025153769 0.69867456
-0.0059166197 -0.015429145 0.71793413
-0.00032866746 -0.014278776 0.7169885
0.016204864 -0.017464669 0.7150408
0.02208586 -0.013046719 0.71363163
0.031974852 -0.014131991 0.71236086
0.041310892 -0.014961366 0.71113592
0.051521305 -0.015318105 0.7097252
0.060978319 -0.015452969 0.70839334
0.07046666 -0.015459999 0.70704055
0.080746308 -0.015675601 0.70560181
0.091046646 -0.015655495 0.70412964
0.10119366 -0.01574943 0.70269406
0.11053671 -0.015797462 0.70136738
0.11973342 -0.015524352 0.70002002
0.13032612 -0.015834417 0.69854867
0.13864033 -0.015518753 0.69732177
0.21625969 -0.014257854 0.68608522
-0.016346386 -0.0020830072 0.7177
0.001034908 -0.0071167555 0.71586978
0.021014199 -0.0054386966 0.71280277
0.031198971 -0.0055380333 0.71136254
0.041113261 -0.0055366419 0.70994794
0.051400874 -0.0057311729 0.70850527
0.061253563 -0.0056207087 0.70708531
0.070636757 -0.006077908 0.7058056
0.080598786 -0.0060867574 0.70438552
0.090880036 -0.006199332 0.70293319
0.10114174 -0.0062616616 0.70147723
0.11146963 -0.0057007857 0.69993138
0.12007974 -0.005289387 0.69864988
0.13939291 -0.0015712045 0.69541466
0.21540397 -0.0098227542 0.68563497
-0.015940171 0.00038173236 0.71732408
-0.007741034 0.0067553315 0.71533179
0.0017063059 0.0037743933 0.71436858
0.012309771 0.0059173014 0.71257931
0.021827474 0.004236253 0.7114383
0.030837949 0.0038273148 0.71020555
0.040899213 0.0038672891 0.70876503
0.051233195 0.0037436392 0.70730662
0.061328139 0.0037911683 0.70586026
0.070668295 0.0033626352 0.70458287
0.080432951 0.0033925902 0.70318592
0.09072616 0.0034178793 0.70171416
0.10097186 0.0031754151 0.70028365
0.10882534 0.0030597784 0.69917822
0.11978818 -0.00040895119 0.69806165
0.14191866 9.3113631e-05 0.6948396
-0.018848434 0.018561922 0.71539301
0.0030771233 0.015574623 0.7126503
0.011498753 0.014710255 0.71156037
0.02173949 0.014613327 0.71011186
0.031158056 0.014469882 0.70878667
0.040741488 0.01424345 0.70744854
0.051101744 0.014160931 0.70598114
0.061337151 0.014102668 0.70452833
0.070679665 0.013939712 0.70321643
0.080264151 0.013762238 0.70187187
0.090528473 0.013612088 0.70042694
0.10078365 0.013562866 0.69897014
0.11027676 0.013747897 0.6975919
0.12008898 0.015455265 0.69597167
0.13215064 0.012033615 0.69469237
0.13997051 0.017115679 0.69292092
0.14931124 0.017014496 0.69160134
0.15704407 0.016806509 0.690525
0.16819391 0.016551726 0.68896717
0.20383632 0.015217435 0.68405414
-0.019426866 0.023381749 0.71485364
-0.0089768171 0.023673937 0.7133249
0.0016636215 0.022779986 0.71192223
0.011262484 0.02239234 0.71060282
0.021024071 0.022201005 0.70923483
0.03007124 0.021887416 0.70798457
0.040601425 0.021113792 0.70658207
0.050977796 0.021041553 0.70511091
0.061296664 0.020921651 0.70365417
0.071094304 0.021333618 0.70220321
0.08006078 0.02125936 0.70093358
0.089825541 0.020965301 0.69957834
0.099114478 0.020825051 0.69827121
0.10820034 0.019581262 0.69713545
0.11959702 0.018730536 0.69561923
0.12982555 0.019716311 0.69403267
0.13993961 0.018829014 0.69270426
0.14928037 0.018726207 0.69138485
0.15701313 0.018519856 0.69030833
0.16816294 0.018266346 0.68875027
0.60523987 -0.45275643 0.68717265
0.1054317 -0.33926052 0.74383473
0.13375719 -0.34064525 0.73997229
0.14447843 -0.34309635 0.73875898
0.15315869 -0.34036711 0.73716831
0.16319743 -0.34224591 0.73597854
0.17377935 -0.34427154 0.7347303
0.18434951 -0.34668925 0.73353422
0.19463086 -0.34480006 0.73182362
0.045256294 -0.3279264 0.75095749
0.059182893 -0.3290509 0.74911559
0.065319054 -0.32959625 0.74831057
0.074873328 -0.32974073 0.74696618
0.084697239 -0.33045807 0.74565715
0.095142886 -0.3310622 0.74424475
0.10529609 -0.3316139 0.74286747
0.1148025 -0.33205861 0.74156845
0.12437955 -0.33343339 0.74037957
0.13514407 -0.33209673 0.7386713
0.14465684 -0.33103126 0.73717672
0.15410894 -0.3323974 0.73600447
0.16259575 -0.33205742 0.73474973
0.19665354 -0.33388081 0.73012602
0.028234059 -0.32039046 0.75241357
0.031250954 -0.32243893 0.75224751
0.046241581 -0.32324713 0.75021309
0.053781316 -0.31870344 0.74855101
0.065443411 -0.32076821 0.7471537
0.0754655 -0.32170773 0.74584508
0.084553778 -0.32238388 0.7446357
0.094524696 -0.32221714 0.7431916
0.10511992 -0.32185611 0.74163336
0.11491989 -0.32213321 0.74027103
0.12330365 -0.32012025 0.73881519
0.13462573 -0.32261005 0.73752105
0.14395592 -0.323064 0.73624861
0.15582217 -0.32495266 0.73479933
0.16343503 -0.3242729 0.73362547
0.16977774 -0.32625964 0.73297703
0.052844994 -0.31497914 0.74820411
0.06889794 -0.31352523 0.74572617
0.074696533 -0.31250778 0.74476767
0.084146932 -0.31278437 0.74345505
0.094557643 -0.31257635 0.74194294
0.10495757 -0.31276298 0.74048328
0.11532592 -0.31261247 0.73898458
0.12497241 -0.31250727 0.73759472
0.13430826 -0.3135559 0.7363981
0.1449943 -0.31493601 0.73505163
0.15987572 -0.31190869 0.73253787
0.057762425 -0.29849428 0.74537534
0.066100717 -0.30046061 0.74443942
0.074408367 -0.30235165 0.74349821
0.083948106 -0.30269426 0.74218136
0.094268128 -0.30278099 0.74072021
0.10478655 -0.303271 0.73928285
0.11478221 -0.30266219 0.73777813
0.12496576 -0.30363572 0.73645091
0.1327942 -0.30272382 0.73521638
0.14870176 -0.30341074 0.73303545
0.1504243 -0.30344191 0.73279381
0.054174501 -0.29232311 0.74509084
0.064678483 -0.29643872 0.74412334
0.074168161 -0.29221621 0.74222463
0.084162816 -0.29290208 0.74088722
0.094313085 -0.29288003 0.73943621
0.10458869 -0.29229993 0.73789537
0.11458323 -0.29270867 0.73652214
0.12119631 -0.29197389 0.73548383
0.13648801 -0.2945483 0.73363441
0.20119005 -0.29046434 0.72387642
0.054807775 -0.27924994 0.74331355
0.067030177 -0.28162348 0.74187613
0.074261874 -0.28213105 0.74090987
0.083523192 -0.28343982 0.73975748
0.094029143 -0.28251466 0.73813921
0.10417518 -0.28253826 0.73669469
0.114978 -0.28330353 0.7352522
0.12429573 -0.28333533 0.73392695
0.13007492 -0.28254628 0.7330007
0.20092727 -0.28707397 0.72347641
0.053314708 -0.26875514 0.74217236
0.066958629 -0.27759767 0.74136686
0.074172154 -0.27339709 0.73979568
0.083406374 -0.27316636 0.7384485
0.093710542 -0.2731688 0.73697865
0.10447414 -0.27305454 0.73542833
0.11445593 -0.2728138 0.73397309
0.12147711 -0.27309552 0.73300779
0.14300385 -0.2739273 0.73004395
0.2017093 -0.27142298 0.72134531
0.055709854 -0.26501849 0.74134851
0.063992351 -0.26148015 0.73971027
0.073279046 -0.26377285 0.7386812
0.083789267 -0.26327035 0.73711681
0.093808241 -0.26330358 0.73569179
0.10406176 -0.26321855 0.73421788
0.11361514 -0.26352787 0.73289484
0.12276292 -0.26210064 0.73140562
0.13174254 -0.26058868 0.72992939
0.20058416 -0.26805699 0.72107142
0.027669884 -0.24944553 0.74333942
0.034185961 -0.25053796 0.74255079
0.046765678 -0.24990928 0.74067497
0.053355899 -0.2526457 0.74008775
0.06363906 -0.25441745 0.73884934
0.073311329 -0.25161994 0.73710841
0.083413467 -0.25335225 0.73589069
0.093496308 -0.25317886 0.73442972
0.10375316 -0.25310749 0.73295718
0.11417816 -0.25357512 0.73153025
0.12333407 -0.25395101 0.73027247
0.13062024 -0.25515857 0.72938871
0.025576841 -0.2465598 0.74326569
0.034244109 -0.24747431 0.74214715
0.044909772 -0.24427104 0.74021214
0.050423145 -0.2469286 0.73976851
0.064944014 -0.24279723 0.73716366
0.073325872 -0.24334499 0.73603851
0.082761668 -0.24340874 0.73470056
0.093324572 -0.24363926 0.73322326
0.10384532 -0.24369358 0.73172927
0.11351041 -0.24258535 0.73020738
0.12347354 -0.24466352 0.72905409
0.12906912 -0.24574809 0.72839576
0.20408356 -0.24219224 0.71723467
0.045493867 -0.23511675 0.73894757
0.0514916 -0.23193964 0.73768187
0.064907655 -0.23405994 0.73604143
0.073138773 -0.23392549 0.73484969
0.082851574 -0.23394562 0.73346668
0.093151569 -0.23397149 0.73200047
0.10353127 -0.23381147 0.73049897
0.11374384 -0.23316263 0.72895825
0.12328485 -0.23047525 0.72725022
0.12845933 -0.23132181 0.72662115
0.20357843 -0.23734567 0.71668136
0.025946941 -0.22115473 0.73993468
0.038160942 -0.22370204 0.73852086
0.043949097 -0.22375579 0.73770201
0.052992988 -0.22394395 0.73643601
0.063450679 -0.22379884 0.73492527
0.07377249 -0.22339155 0.73340011
0.083291322 -0.2232822 0.73202789
0.092968173 -0.22337449 0.73065925
0.10311805 -0.22400641 0.72929269
0.11388067 -0.22468904 0.72784531
0.12168314 -0.22558229 0.72684741
0.12841254 -0.22872859 0.72629321
0.0078627076 -0.20888379 0.74093139
0.011030577 -0.2093101 0.74053442
0.026411094 -0.21476619 0.73904407
0.03251775 -0.21200539 0.73781657
0.043352928 -0.21356446 0.73647195
0.052820727 -0.21335813 0.73509455
0.063262731 -0.21335305 0.73360413
0.073740557 -0.21378174 0.7321645
0.083078653 -0.21320881 0.73075837
0.092801213 -0.21351418 0.72941071
0.10340421 -0.21364583 0.72791499
0.11325853 -0.21383959 0.72653395
0.0065115169 -0.20308283 0.74037564
0.012576612 -0.20236166 0.73941725
0.023802787 -0.20328945 0.73793525
0.033678863 -0.20438609 0.73666775
0.043173708 -0.20341894 0.73518836
0.052674688 -0.2036121 0.73385775
0.063186012 -0.20297559 0.73227608
0.07333456 -0.20373535 0.7309261
0.082917452 -0.20405874 0.72960067
0.092624806 -0.20419125 0.7282328
0.10299854 -0.2042664 0.72676253
0.1128116 -0.20416355 0.72534919
0.12071517 -0.20749614 0.72465163
-0.0032294057 -0.19220281 0.74036133
0.0047217049 -0.19193497 0.73919243
0.01323729 -0.19380832 0.7382192
0.02162521 -0.19322635 0.73694742
0.034457132 -0.19199944 0.73495835
0.043046411 -0.19376309 0.73396051
0.052950796 -0.19414826 0.73259711
0.062819019 -0.19386971 0.73115331
0.073510632 -0.19401357 0.7296465
0.08256416 -0.19399683 0.72835279
0.092458427 -0.1943464 0.72698617
0.10282363 -0.19444592 0.72552025
0.11170631 -0.19505824 0.72433197
-0.033029038 -0.17996044 0.74303305
-0.030420749 -0.18000767 0.74266708
-0.0025045536 -0.18574707 0.73942482
0.0044402406 -0.18373351 0.73817426
0.013956022 -0.18193683 0.73658478
0.022996057 -0.1836268 0.73551315
0.03305959 -0.18358664 0.73407221
0.044070587 -0.18362948 0.73250681
0.053136047 -0.18411019 0.73127544
0.063094579 -0.18416563 0.72986186
0.073082961 -0.18413684 0.72843301
0.082966968 -0.18417311 0.72702765
0.092173047 -0.18454652 0.72576237
0.10041416 -0.18666606 0.72486013
0.0052523836 -0.17263058 0.73662561
0.013914552 -0.17393084 0.73555768
0.023118105 -0.17322662 0.73415363
0.033404347 -0.17371216 0.73274887
0.043644018 -0.1739146 0.73131406
0.05324883 -0.17358407 0.72990108
0.062722534 -0.1739396 0.72859538
0.073146917 -0.17393585 0.72710758
0.082793556 -0.17357516 0.72568488
0.090366304 -0.17535546 0.72483408
0.098224789 -0.17806266 0.72406232
-0.033860974 -0.1596033 0.74052495
-0.025654094 -0.16202506 0.73966658
-0.016833294 -0.16101064 0.73827726
-0.0058144741 -0.16250464 0.73689795
0.0032050461 -0.16371778 0.73576772
0.013596494 -0.16374695 0.73428887
0.023078829 -0.16342914 0.73289502
0.032957025 -0.16376819 0.73152947
0.043250397 -0.16378021 0.73006254
0.053004898 -0.16444181 0.72875625
0.062616453 -0.16390368 0.72731549
0.073211156 -0.16382799 0.7257942
0.082784027 -0.16407843 0.72446066
0.094545774 -0.16503416 0.72290605
0.10089889 -0.16402584 0.72186953
-0.084860653 -0.14936325 0.74647969
-0.034695528 -0.1532851 0.73982871
-0.026835682 -0.15341385 0.73872399
-0.012568461 -0.15286952 0.73661828
-0.0076085962 -0.15210769 0.73581231
0.0031087659 -0.15394236 0.73452008
0.013557229 -0.15375696 0.7330054
0.023149379 -0.15385291 0.73164934
0.0328153 -0.15408236 0.73029995
0.043515395 -0.15423314 0.72879267
0.052874412 -0.15467906 0.72751504
0.062064335 -0.15432191 0.72615784
0.07300739 -0.15456647 0.72462809
0.082160875 -0.15554032 0.72344792
0.10043542 -0.15747173 0.72108984
-0.06412676 -0.13919061 0.74220896
-0.054619558 -0.13944313 0.74088514
-0.035594918 -0.14259744 0.7385779
-0.026757946 -0.14346585 0.7374292
-0.01568538 -0.14182438 0.73563772
-0.006514011 -0.14406669 0.73461854
0.0031868629 -0.14399841 0.7332257
0.013643339 -0.14401853 0.7317366
0.023232266 -0.14398566 0.7303642
0.032740492 -0.14417899 0.72903264
0.043191239 -0.14405331 0.72752535
0.052906614 -0.14378732 0.72610503
0.061268248 -0.14512178 0.72508425
0.072621852 -0.14406146 0.72332764
0.082443014 -0.14416753 0.72194016
-0.092193931 -0.12829499 0.74480736
-0.064174801 -0.13612729 0.74182051
-0.055189189 -0.13310763 0.7401489
-0.043026783 -0.12956393 0.7379564
-0.035530046 -0.13248478 0.73726374
-0.026727527 -0.13351543 0.73614097
-0.016285643 -0.13365959 0.73466974
-0.0065687317 -0.13347413 0.7332595
0.0031124949 -0.13330042 0.73185581
0.013438929 -0.13363683 0.73042601
0.023150057 -0.13416734 0.72910899
0.032521375 -0.13357592 0.7276957
0.042827334 -0.13408066 0.72629046
0.052531052 -0.13465084 0.72497964
0.061824929 -0.13390023 0.72355682
0.072448358 -0.13456194 0.72212654
0.082231745 -0.13515994 0.72080791
0.08886347 -0.13641514 0.72002375
0.10403428 -0.13738117 0.71798396
-0.087956995 -0.12226552 0.74342483
-0.075230911 -0.12145641 0.74150485
-0.066454478 -0.1213329 0.74023676
-0.058086671 -0.12489226 0.73950219
-0.043844245 -0.12266025 0.73718226
-0.036441971 -0.12374712 0.73626637
-0.027019901 -0.12413706 0.73497248
-0.016405895 -0.12397736 0.73343754
-0.006535979 -0.12348817 0.73196632
0.0028612986 -0.12392038 0.7306813
0.013426393 -0.12368003 0.72914296
0.023050781 -0.12442468 0.72786599
0.032570127 -0.1242269 0.72648233
0.043082755 -0.12459624 0.72503018
0.052390665 -0.12497221 0.72375071
0.061944958 -0.12478742 0.72236377
0.071647197 -0.12573822 0.72110224
0.078403473 -0.12931272 0.72059965
-0.094216183 -0.11255676 0.74306506
-0.083814532 -0.11100049 0.74138021
-0.075531647 -0.11589922 0.7408306
-0.0651474 -0.11475469 0.73920143
-0.053996541 -0.11203891 0.7372601
-0.044158924 -0.11409809 0.73612225
-0.036638808 -0.1141972 0.73506218
-0.027076233 -0.11435238 0.73371786
-0.016631955 -0.11449338 0.73224598
-0.0069305766 -0.11437264 0.73084635
0.0027605146 -0.11420845 0.72944254
0.013332009 -0.11394503 0.72790027
0.022858005 -0.11404447 0.72655404
0.032238916 -0.11457379 0.72528398
0.042523701 -0.11486334 0.72385406
0.052334208 -0.11469307 0.72243237
0.061749864 -0.11419821 0.72102523
0.068272717 -0.11659946 0.72040451
-0.084161624 -0.10299206 0.74039638
-0.075614974 -0.10199367 0.73904812
-0.065652311 -0.10320593 0.73778319
-0.057495285 -0.10371061 0.73668456
-0.047742933 -0.10570842 0.735551
-0.036481213 -0.10385297 0.73370486
-0.027233917 -0.10384654 0.7323848
-0.016712859 -0.10386056 0.73088551
-0.0069184378 -0.10356433 0.72944987
0.0026007332 -0.10373515 0.72811389
0.01294601 -0.10399333 0.72667122
0.022546478 -0.10396852 0.72529829
0.031987857 -0.10410622 0.7239691
0.042521868 -0.10369973 0.72241378
0.052322302 -0.10327154 0.72096026
0.060820621 -0.10454968 0.71991277
0.068430409 -0.10148013 0.718431
-0.084113896 -0.095750734 0.7394551
-0.074934244 -0.094558045 0.73799157
-0.066656455 -0.095349938 0.73691279
-0.057461083 -0.093628243 0.73537868
-0.046880119 -0.09395466 0.73391128
-0.036893059 -0.094009861 0.73249346
-0.027033318 -0.09372405 0.73104995
-0.016732227 -0.094040923 0.72962117
-0.0070879851 -0.09401387 0.72824168
0.0022677332 -0.094485171 0.72696781
0.012782477 -0.094425485 0.72545993
0.02242728 -0.094291791 0.72406667
0.032106124 -0.09453962 0.72271776
0.041557536 -0.095413774 0.7214821
0.051800732 -0.09513548 0.71998483
0.061811183 -0.095658712 0.71862417
0.06880942 -0.095292658 0.71757853
-0.10434669 -0.080970101 0.74043441
-0.0846259 -0.083547637 0.73795348
-0.075793356 -0.083224826 0.73665172
-0.066923529 -0.083578117 0.73543185
-0.057148777 -0.08421284 0.73411918
-0.046690088 -0.084355354 0.73264539
-0.036843266 -0.084147438 0.73121375
-0.027147695 -0.084086329 0.72982264
-0.016808093 -0.084336504 0.72837979
-0.0072129909 -0.084384866 0.72701705
0.0022611618 -0.084620662 0.72569579
0.012709882 -0.084670335 0.72421145
0.022279505 -0.084705725 0.72285074
0.031810924 -0.084792674 0.72150213
0.041867267 -0.084167108 0.71998668
0.051717967 -0.084954314 0.71868289
0.06076248 -0.085648477 0.71748209
0.068703882 -0.088004738 0.71665311
-0.11234474 -0.071229845 0.74031866
-0.10321136 -0.076454639 0.73968977
-0.099224582 -0.075828984 0.73904026
-0.084052861 -0.072375126 0.73643011
-0.076932266 -0.073626474 0.73557568
-0.066316262 -0.074177094 0.73413211
-0.057370156 -0.07456281 0.73290551
-0.046682827 -0.073679365 0.7312668
-0.036945235 -0.07361307 0.72986901
-0.027474625 -0.073848628 0.72854817
-0.017044067 -0.073978379 0.72707683
-0.0072794873 -0.07378348 0.72565854
0.0022619329 -0.073884159 0.72431028
0.012648087 -0.074022397 0.72284627
0.022174381 -0.074126147 0.72150064
0.032191191 -0.07478375 0.72015631
0.042085599 -0.074625537 0.71872425
0.051281027 -0.075195812 0.7174859
0.059174482 -0.075215936 0.71636248
-0.11428826 -0.059854582 0.73912811
-0.10994112 -0.059933312 0.738518
-0.095300108 -0.061925359 0.73668635
-0.08645016 -0.063530169 0.73563075
-0.076473877 -0.063703701 0.7342298
-0.067007512 -0.063947156 0.73291063
-0.057402503 -0.064067006 0.73155582
-0.046839528 -0.064091973 0.73005199
-0.037147362 -0.064087927 0.72866875
-0.027541315 -0.064161271 0.72730768
-0.017161727 -0.064354472 0.72585177
-0.0073475465 -0.064095072 0.7244181
0.0020138584 -0.064477868 0.7231319
0.012418386 -0.064598076 0.721663
0.021305636 -0.06478551 0.72041923
0.03471449 -0.065892771 0.71864903
0.041748494 -0.066674955 0.71774644
0.051086288 -0.065472163 0.71625906
0.060117528 -0.070221096 0.71558338
0.072801948 -0.066994295 0.71335733
-0.11261238 -0.056395702 0.73844266
-0.10658936 -0.053015519 0.73714715
-0.095819443 -0.053529795 0.73567706
-0.086736001 -0.053522028 0.73438013
-0.076642089 -0.054123722 0.73301762
-0.067120671 -0.054313928 0.73168373
-0.057358887 -0.054288477 0.73028773
-0.046992112 -0.054504979 0.72883666
-0.037472125 -0.054692991 0.7275027
-0.027707022 -0.054598335 0.72609735
-0.017207723 -0.05464457 0.72460544
-0.0075589251 -0.054620612 0.72322565
0.0020031333 -0.054696135 0.72187126
0.012397174 -0.054810703 0.72040308
0.021871679 -0.055073418 0.71908522
0.032483876 -0.054895639 0.71754825
0.039160818 -0.05460012 0.7165575
0.050721653 -0.05609443 0.71510094
0.05811426 -0.054630563 0.71385747
0.069681041 -0.059448697 0.71282887
-0.12433445 -0.042575367 0.73833174
-0.1198827 -0.038817808 0.7372117
-0.1049083 -0.042071406 0.73549509
-0.096926183 -0.043405041 0.73452842
-0.087237597 -0.043477066 0.73315549
-0.07671804 -0.043584827 0.73166853
-0.067108199 -0.043701459 0.73031253
-0.057579834 -0.043877162 0.72897583
-0.047075268 -0.043972962 0.72748953
-0.037462384 -0.044058889 0.72612906
-0.027794847 -0.044075619 0.72475207
-0.017285209 -0.044106506 0.72325659
-0.0077262633 -0.044204857 0.72190559
0.0017584413 -0.044388946 0.72057611
0.012081772 -0.04472734 0.71914697
0.021713194 -0.044565618 0.71775192
0.030560672 -0.044033088 0.71642089
0.038677569 -0.048490439 0.71583813
-0.13395101 -0.029839946 0.7380603
-0.12255396 -0.03528019 0.73713636
-0.11951096 -0.035335299 0.7367093
-0.1055052 -0.035311583 0.73470807
-0.097160801 -0.033859301 0.73333013
-0.087489724 -0.033956263 0.73196292
-0.076839194 -0.033976384 0.73044598
-0.067096829 -0.033996336 0.72905862
-0.057694666 -0.034261502 0.72775149
-0.047051966 -0.034242127 0.7262305
-0.037505485 -0.034384955 0.72488689
-0.027921174 -0.034459848 0.72352922
-0.017189957 -0.03457395 0.72201294
-0.0078091193 -0.034573529 0.72067451
0.0020142309 -0.034575179 0.71927327
0.011994332 -0.034608901 0.71785367
0.020123739 -0.03619023 0.71689796
0.031727079 -0.037364017 0.71539402
0.044867691 -0.036244068 0.71337473
-0.12509826 -0.025015585 0.73617482
-0.12044904 -0.02412816 0.73539698
-0.10485782 -0.023737205 0.73312211
-0.097096667 -0.024154143 0.73206866
-0.087608472 -0.024338216 0.7307387
-0.077143848 -0.024490457 0.72926539
-0.067556024 -0.024635032 0.72791618
-0.05797597 -0.024778062 0.7265678
-0.047414146 -0.024842506 0.72506934
-0.037777741 -0.024921684 0.7237047
-0.028136998 -0.024979783 0.72233665
-0.017642312 -0.025051054 0.72084862
-0.0080627538 -0.025140405 0.71949345
0.0013874769 -0.025363926 0.7181741
0.011678219 -0.025638061 0.71674132
0.021120008 -0.02512053 0.71532738
0.028241407 -0.022136562 0.71392637
-0.12440842 -0.013740599 0.73462141
-0.117358 -0.013319429 0.73356128
-0.10625955 -0.012919944 0.7319262
-0.097296849 -0.013691256 0.7307471
-0.087662093 -0.013814439 0.72938848
-0.077564016 -0.01414213 0.72798997
-0.067566551 -0.014078287 0.72655547
-0.057910249 -0.014165904 0.72518909
-0.047544505 -0.01437196 0.72373676
-0.037800357 -0.014373888 0.72234678
-0.028172577 -0.014449207 0.72098291
-0.017710783 -0.01454787 0.7195031
-0.0098539535 -0.013717927 0.71827507
0.0037859567 -0.015106053 0.71650821
0.011548758 -0.014938283 0.71537906
0.02094112 -0.016471202 0.71423686
0.028167617 -0.017807884 0.71337825
-0.15448317 0.00019044988 0.73711455
-0.14482498 -0.0052183066 0.73643452
-0.1342793 -0.0033352077 0.73468697
-0.12686673 -0.0032334737 0.73361635
-0.11728208 -0.0038219504 0.7323249
-0.10709 -0.0039794911 0.73089117
-0.097556464 -0.0041563474 0.72955382
-0.087780073 -0.0042139385 0.72816634
-0.077483103 -0.0044586882 0.72672892
-0.067602292 -0.0044411682 0.72531688
-0.057986699 -0.004553806 0.72395962
-0.047509857 -0.004679732 0.72248119
-0.037921578 -0.0048000515 0.7211287
-0.028288178 -0.0048730355 0.71976376
-0.018342165 -0.0061251726 0.71850634
-0.0083149504 -0.0051265508 0.71694696
0.0014584921 -0.0040364582 0.7154119
0.011529211 -0.0054671932 0.71415973
0.022215899 -0.0055895057 0.71265084
0.027519256 -0.0052534845 0.71185082
-0.17568099 0.0068985578 0.73927325
-0.16328263 0.0099668317 0.73710847
-0.15715066 0.0066846199 0.73665714
-0.14605667 0.0081395023 0.73488665
-0.13666466 0.0064859483 0.73376
-0.12716095 0.0059870351 0.73246855
-0.11749394 0.0058595259 0.7311058
-0.10702424 0.0056995023 0.72963274
-0.097384706 0.005570665 0.72827411
-0.087867528 0.0053934865 0.72693914
-0.077288181 0.0052925609 0.72544277
-0.06765458 0.0051765982 0.72408342
-0.058201469 0.0049707964 0.72276121
-0.04773818 0.004830448 0.72128659
-0.037908599 0.0048506539 0.71988153
-0.028521994 0.0046108197 0.71857333
-0.018119343 0.0047902074 0.71706611
-0.0086756572 0.0034798998 0.71588778
0.00072866678 0.0046642348 0.71439326
0.010336619 0.0017309338 0.71340096
0.019924536 0.004235385 0.71170986
-0.18350495 0.019034535 0.73882353
-0.16308518 0.015122136 0.73641509
-0.1566896 0.016198387 0.73536372
-0.14623803 0.01553919 0.73395765
-0.13660145 0.016436828 0.732467
-0.12753519 0.015747754 0.73126245
-0.11834014 0.01447835 0.7301144
-0.10708416 0.016013239 0.72831041
-0.097489506 0.016036628 0.72693849
-0.087974913 0.015857588 0.72560424
-0.077444762 0.015728028 0.72411859
-0.067848697 0.015588902 0.72276747
-0.058162965 0.015497491 0.7213974
-0.047743972 0.015333775 0.71993214
-0.038212001 0.015182327 0.71859175
-0.028627364 0.01505962 0.71724004
-0.018007366 0.014226107 0.71583247
-0.0087504983 0.014721308 0.71444792
-0.0016515777 0.013673538 0.7135703
0.019064263 0.010021809 0.71108598
-0.1844216 0.021668069 0.7386145
-0.1764358 0.027428344 0.73673183
-0.16274886 0.024764854 0.7351228
-0.15639922 0.02529275 0.73414874
-0.14696383 0.02557986 0.73276556
-0.13739146 0.025599934 0.73139727
-0.12734915 0.025301743 0.73000312
-0.11810607 0.025348829 0.72867823
-0.1073471 0.025598288 0.7271111
-0.097515263 0.025644941 0.7257024
-0.088018358 0.025464132 0.72437078
-0.077323578 0.025389396 0.72285467
-0.067696154 0.025264271 0.72149718
-0.058209524 0.025089631 0.72016627
-0.048013601 0.024830019 0.71874511
-0.038433816 0.024692509 0.71739614
-0.028756458 0.02460726 0.71602648
-0.017856825 0.024868676 0.71443772
-0.008622095 0.024730256 0.71313804
-0.0003387332 0.025504714 0.71185631
0.010156743 0.026181731 0.71027154
0.020684555 0.02581656 0.70881677
0.029933583 0.025365125 0.70755541
0.040330891 0.024326846 0.70620602
0.049765743 0.024100658 0.70488906
0.05917025 0.023801237 0.70358598
0.066931225 0.023637652 0.70249987
0.099789679 0.021521885 0.69808495
0.10928883 0.021207899 0.69677025
0.11794536 0.020956505 0.69556767
0.12566541 0.020958666 0.69446594
-0.19388214 0.038773336 0.73775697
-0.18783972 0.037885405 0.73700947
-0.17694077 0.037996806 0.73544014
-0.16810635 0.036931936 0.73431718
-0.1569691 0.034531787 0.73303783
-0.14747643 0.034243468 0.73172081
-0.13722008 0.033879366 0.73030454
-0.12744321 0.034071222 0.72888494
-0.11821997 0.034062959 0.72757006
-0.1073674 0.03383686 0.72605085
-0.097638592 0.032593496 0.72482336
-0.088055812 0.032679826 0.72344506
-0.07818038 0.032969464 0.72199881
-0.06891422 0.031743735 0.72083491
-0.058836356 0.030964157 0.71949774
-0.047487199 0.030357029 0.71795678
-0.039000489 0.030565899 0.71671909
-0.029577376 0.030342175 0.71540356
-0.019495999 0.030003162 0.71400899
-0.0090182573 0.029437702 0.71258712
0.00010544062 0.029042024 0.71133649
0.0094040632 0.028716393 0.71005183
0.02149706 0.028450035 0.70836097
0.028453883 0.028329439 0.70738399
0.6045236 0.42233747 0.57435417
0.60711008 0.42229062 0.57399118
0.6236701 -0.45851606 0.6852864
0.62459445 -0.45537004 0.68474853
0.60835505 -0.4209258 0.68262076
0.61011201 -0.42095762 0.68237424
0.15186368 -0.34911883 0.73848248
0.058926255 -0.33913955 0.75045407
0.061614733 -0.33852369 0.74999106
0.08796756 -0.3394247 0.74634755
0.094489992 -0.3394551 0.74542093
0.10322729 -0.34040102 0.74429655
0.11345729 -0.3422313 0.74307311
0.12375785 -0.34149361 0.74150836
0.14819996 -0.34681746 0.73870814
0.15271287 -0.3470974 0.73810047
0.1649611 -0.34730804 0.73638022
-0.031790398 -0.32736295 0.761877
-0.028891683 -0.32655126 0.76135868
-0.01497825 -0.32723528 0.759462
-0.0051122066 -0.32838413 0.75820255
0.0047964435 -0.32887948 0.75685281
0.01629887 -0.32962856 0.75530845
0.024264 -0.32992858 0.75421083
0.036057517 -0.33077291 0.75263715
0.044590402 -0.33319843 0.75173277
0.054313928 -0.33248705 0.75025368
0.064949512 -0.33660111 0.74926722
0.073950991 -0.33635753 0.74795157
0.080710113 -0.33540773 0.74686468
-0.095101699 -0.31719092 0.76959705
-0.081996247 -0.31752235 0.76777005
-0.073906608 -0.31820905 0.7667045
-0.063427895 -0.3185716 0.76525629
-0.052883476 -0.32026818 0.76397085
-0.043806899 -0.32020172 0.7626673
-0.033960201 -0.32052779 0.76130456
-0.024177769 -0.32114768 0.7599889
-0.014801407 -0.32094854 0.75862545
-0.0048169792 -0.32118016 0.75723088
0.0055395216 -0.32229909 0.7558977
0.015265189 -0.32191256 0.75446028
0.024380304 -0.32164672 0.75312555
0.03560219 -0.32230744 0.7516098
0.04423169 -0.32130283 0.75024897
0.054912366 -0.32352987 0.74901253
0.064865723 -0.32376152 0.74762237
0.072305121 -0.32415658 0.74661195
-0.099625424 -0.31555766 0.77003169
-0.092060074 -0.31074509 0.76833129
-0.083327122 -0.31036434 0.7670362
-0.074650809 -0.31113973 0.76589847
-0.064220674 -0.3114467 0.76444995
-0.054517005 -0.31120157 0.76303387
-0.043969072 -0.31083047 0.76148123
-0.03413064 -0.3115499 0.76017046
-0.024453513 -0.31154439 0.758789
-0.014861214 -0.31181365 0.75745523
-0.0051955059 -0.3118217 0.75607729
0.0054493733 -0.31229252 0.75461936
0.015089767 -0.31228322 0.75324279
0.024732202 -0.3122324 0.7518605
0.035151269 -0.31234095 0.75038797
0.044808704 -0.31246004 0.74902558
0.054637205 -0.3119339 0.74755543
0.064391926 -0.3122775 0.74620807
-0.090453476 -0.30439848 0.76728308
-0.083478592 -0.30279613 0.76608133
-0.074007504 -0.30152065 0.76456547
-0.064368203 -0.30169863 0.76321316
-0.054845102 -0.30167091 0.76185095
-0.043961897 -0.30145228 0.76027006
-0.034315597 -0.30171692 0.75892788
-0.024211712 -0.30175421 0.75749123
-0.015019697 -0.30210203 0.75622469
-0.0053308457 -0.30201742 0.75483149
0.0051512085 -0.30223978 0.75336468
0.014747186 -0.30249017 0.75202793
0.024468089 -0.30211437 0.75059259
0.034765039 -0.30245307 0.7491672
0.044613138 -0.30298832 0.74783128
0.054014385 -0.30295375 0.74648553
0.063413464 -0.30428177 0.74531591
-0.10129887 -0.28897259 0.76683998
-0.09566246 -0.2918314 0.76640475
-0.081738293 -0.29127136 0.76434588
-0.074730314 -0.29102957 0.76331484
-0.064530045 -0.29187945 0.76196927
-0.054866038 -0.29159999 0.76055443
-0.044329181 -0.29173598 0.75906867
-0.034305252 -0.2915085 0.75760925
-0.02481794 -0.29176718 0.75628901
-0.01504107 -0.29197496 0.75492096
-0.005686136 -0.29209277 0.75360143
0.0047723874 -0.29192066 0.75208718
0.014744028 -0.29207364 0.75068426
0.024347784 -0.29219717 0.74933004
0.034988657 -0.29238868 0.74783659
0.044477366 -0.29309091 0.74657345
0.054079518 -0.29315192 0.74521142
0.064510956 -0.29222471 0.74360353
0.074146301 -0.29337576 0.7423774
0.079368137 -0.29317778 0.74160677
-0.1010448 -0.28556412 0.76636386
-0.091252685 -0.28197256 0.76450336
-0.084226191 -0.28103691 0.76338017
-0.074381039 -0.28080219 0.76194525
-0.064828776 -0.28158054 0.76068288
-0.055128586 -0.28196004 0.75934792
-0.044526648 -0.28212354 0.75785643
-0.034695543 -0.28196862 0.7564339
-0.024860749 -0.28133136 0.7549485
-0.015533449 -0.28218728 0.75372821
-0.0058096983 -0.28225476 0.75234967
0.0049825031 -0.28273857 0.75087237
0.014498278 -0.28275135 0.74951643
0.02414741 -0.2826997 0.74813306
0.034634642 -0.28281572 0.74665189
0.044245936 -0.28287748 0.74528861
0.053600106 -0.2833207 0.74401122
0.063066803 -0.28427941 0.74278426
0.071424805 -0.28692138 0.74193281
-0.1003731 -0.27411798 0.76479107
-0.094695911 -0.27240154 0.76375961
-0.083890304 -0.2728959 0.76228172
-0.074561119 -0.27144837 0.760764
-0.064854808 -0.27169403 0.75941086
-0.054811895 -0.27175319 0.75798565
-0.044385847 -0.27165264 0.75648522
-0.034935225 -0.27228519 0.75521851
-0.025150714 -0.27199858 0.75378561
-0.015512568 -0.27212194 0.75242639
-0.0061990172 -0.27316391 0.75123209
0.0045740381 -0.2725507 0.74961597
0.014290933 -0.27326027 0.74832129
0.024059338 -0.27264681 0.74684846
0.034551356 -0.27266014 0.74535322
0.044111393 -0.2730003 0.74403322
0.054041974 -0.2740775 0.74275547
0.063960508 -0.27350879 0.74126697
0.070861511 -0.27177536 0.74005872
-0.082439631 -0.26044834 0.7604686
-0.074915007 -0.26182401 0.75957257
-0.065090105 -0.26162404 0.75814497
-0.055299856 -0.26145431 0.75672638
-0.044768237 -0.26159528 0.75524199
-0.035326704 -0.26226756 0.75398171
-0.025533723 -0.26294151 0.75267148
-0.015835933 -0.26178086 0.75113821
-0.0057160035 -0.26279229 0.74982488
0.0045690816 -0.26227626 0.74829096
0.01432698 -0.26272866 0.74695718
0.023823563 -0.26333013 0.74567986
0.034330662 -0.26330745 0.74417794
0.043940961 -0.26334912 0.74281216
0.053137504 -0.26285306 0.74143612
0.064528793 -0.2655156 0.74015445
0.07464698 -0.26056477 0.73807204
0.079386242 -0.26203319 0.73758537
-0.10073534 -0.25110635 0.7618733
-0.096187457 -0.2506777 0.76116914
-0.084453151 -0.25184038 0.75964504
-0.074729979 -0.25178504 0.75825071
-0.065253124 -0.25192264 0.7569164
-0.05561005 -0.25209886 0.75556338
-0.044858418 -0.25172573 0.75398135
-0.035090391 -0.25260872 0.75270164
-0.025586434 -0.25294206 0.75138879
-0.01577422 -0.2522451 0.74989891
-0.0062104985 -0.25287619 0.74861586
0.0043926034 -0.25264287 0.74707299
0.013960605 -0.25262707 0.7457059
0.0232541 -0.25391999 0.74454689
0.034359798 -0.25521627 0.74312973
0.043413438 -0.25390688 0.74166906
0.053970579 -0.25348467 0.74010837
0.063776776 -0.25330648 0.73868626
0.07363528 -0.25600174 0.73762757
0.078721963 -0.257364 0.73707759
-0.091907561 -0.2426665 0.75952488
-0.084799469 -0.24206106 0.75843251
-0.07557933 -0.24262396 0.75718975
-0.065531328 -0.24245273 0.75573415
-0.055632476 -0.2420941 0.75427562
-0.045067653 -0.24245729 0.75281513
-0.035624437 -0.24277678 0.75150913
-0.025988877 -0.24273963 0.75012964
-0.01608501 -0.24331102 0.74879038
-0.0065625552 -0.24315317 0.74741149
0.004152419 -0.24324438 0.74589449
0.013915757 -0.24355242 0.74454135
0.023202628 -0.24289522 0.74313164
0.034002569 -0.24299753 0.74160397
0.042461589 -0.2428038 0.74037212
0.053523041 -0.24348034 0.73888129
0.060932565 -0.24577016 0.7381196
-0.10117382 -0.22973929 0.7591787
-0.096628837 -0.22969046 0.75852394
-0.08502683 -0.2328051 0.75727063
-0.075792946 -0.2326366 0.7559315
-0.065617025 -0.23259914 0.75447482
-0.05575829 -0.23232567 0.75303304
-0.045381106 -0.23278615 0.75161189
-0.035566032 -0.23253839 0.75017971
-0.025393292 -0.23242249 0.74871331
-0.016014971 -0.232969 0.74744588
-0.0063900091 -0.23331466 0.74611723
0.0039884914 -0.23356442 0.74466884
0.013617977 -0.23365416 0.74330652
0.023353398 -0.23327097 0.7418682
0.033819392 -0.23342299 0.74039459
0.042243335 -0.23233831 0.73905277
0.05413932 -0.23562703 0.73778003
0.05980853 -0.23414189 0.73677951
-0.12151708 -0.22173204 0.76104784
-0.10280857 -0.22257444 0.75848746
-0.094244465 -0.22280894 0.75729585
-0.085147962 -0.22269568 0.75598335
-0.07548169 -0.22266172 0.75459993
-0.065625302 -0.22260392 0.75318623
-0.056130454 -0.22306331 0.75189096
-0.045551017 -0.2231109 0.75038767
-0.035710655 -0.2228101 0.748945
-0.026024722 -0.22283201 0.74756593
-0.016404059 -0.2229975 0.74621463
-0.0069364496 -0.22352681 0.74493217
0.0035179853 -0.22359903 0.74345005
0.013657818 -0.22322462 0.7419551
0.023126774 -0.22355142 0.74064624
0.033200301 -0.22353438 0.73920691
0.041094407 -0.22131717 0.73779452
-0.13570026 -0.21442394 0.76212835
-0.11138655 -0.20975733 0.75805736
-0.10571923 -0.20994955 0.75727355
-0.094404861 -0.21130806 0.7558347
-0.0853277 -0.21211556 0.7546438
-0.075346805 -0.21261753 0.75328457
-0.065486968 -0.21236707 0.7518456
-0.056042299 -0.21287343 0.7505635
-0.045401342 -0.21276204 0.74903095
-0.035693798 -0.21273069 0.74764192
-0.026074406 -0.21287835 0.7462886
-0.016415523 -0.2129153 0.74491531
-0.0066290572 -0.21380424 0.74363381
0.003647387 -0.21381277 0.74216878
0.013851684 -0.21431787 0.74077809
0.022030931 -0.21312267 0.73945695
0.034433182 -0.21500553 0.73793048
0.039670698 -0.21474223 0.73714924
