# .PCD v0.7 - Point Cloud Data file format
VERSION 0.7
FIELDS x y z
SIZE 4 4 4
TYPE F F F
COUNT 1 1 1
WIDTH 1404
HEIGHT 1
VIEWPOINT 0 0 0 1 0 0 0
POINTS 1404
DATA ascii
-0.2431656 -0.24861979 0.98299998
-0.24134754 -0.24861979 0.98299998
-0.23928581 -0.24836688 0.98199999
-0.23722778 -0.24811397 0.98100001
-0.23541342 -0.24811397 0.98100001
-0.23359905 -0.24811397 0.98100001
-0.23202099 -0.24836688 0.98199999
-0.23043919 -0.24861979 0.98299998
-0.22862113 -0.24861979 0.98299998
-0.22680306 -0.24861979 0.98299998
-0.224985 -0.24861979 0.98299998
-0.22316694 -0.24861979 0.98299998
-0.22134888 -0.24861979 0.98299998
-0.21953082 -0.24861979 0.98299998
-0.21771276 -0.24861979 0.98299998
-0.21567509 -0.24836688 0.98199999
-0.21342331 -0.24786106 0.98000002
-0.21139486 -0.24760813 0.97899997
-0.20937012 -0.24735521 0.97799999
-0.20756131 -0.24735521 0.97799999
-0.20575251 -0.24735521 0.97799999
-0.20415221 -0.24760813 0.97899997
-0.20234156 -0.24760813 0.97899997
-0.20053089 -0.24760813 0.97899997
-0.19872023 -0.24760813 0.97899997
-0.19690956 -0.24760813 0.97899997
-0.19489962 -0.24735521 0.97799999
-0.19309081 -0.24735521 0.97799999
-0.19147758 -0.24760813 0.97899997
-0.18966691 -0.24760813 0.97899997
-0.18785626 -0.24760813 0.97899997
-0.18623564 -0.24786106 0.98000002
-0.18442312 -0.24786106 0.98000002
-0.18242426 -0.24760813 0.97899997
-0.18061359 -0.24760813 0.97899997
-0.17843767 -0.24710229 0.977
-0.17663071 -0.24710229 0.977
-0.1746448 -0.24684937 0.97600001
-0.1726626 -0.24659646 0.97500002
-0.17085934 -0.24659646 0.97500002
-0.16905607 -0.24659646 0.97500002
-0.16742434 -0.24684937 0.97600001
-0.16561922 -0.24684937 0.97600001
-0.16381411 -0.24684937 0.97600001
-0.162009 -0.24684937 0.97600001
-0.16020389 -0.24684937 0.97600001
-0.15839878 -0.24684937 0.97600001
-0.15675411 -0.24710229 0.977
-0.15494713 -0.24710229 0.977
-0.15314017 -0.24710229 0.977
-0.15133321 -0.24710229 0.977
-0.1493732 -0.24684937 0.97600001
-0.14756809 -0.24684937 0.97600001
-0.14576297 -0.24684937 0.97600001
-0.14410536 -0.24710229 0.977
-0.14229839 -0.24710229 0.977
-0.14049143 -0.24710229 0.977
-0.13854252 -0.24684937 0.97600001
-0.13673741 -0.24684937 0.97600001
-0.13507053 -0.24710229 0.977
-0.13339996 -0.24735521 0.97799999
-0.1317257 -0.24760813 0.97899997
-0.13044585 -0.24861979 0.98299998
-0.12928206 -0.2498844 0.98799998
-0.12784176 -0.25064316 0.991
-0.12562743 -0.2498844 0.98799998
-0.10094444 -0.24760813 0.97899997
-0.09883 -0.24684937 0.97600001
-0.097024888 -0.24684937 0.97600001
-0.095024645 -0.24634352 0.97399998
-0.093127519 -0.24609061 0.97299999
-0.091234095 -0.24583769 0.972
-0.089344367 -0.24558477 0.97100002
-0.087548502 -0.24558477 0.97100002
-0.085840948 -0.24583769 0.972
-0.084043227 -0.24583769 0.972
-0.082245514 -0.24583769 0.972
-0.080447793 -0.24583769 0.972
-0.07865008 -0.24583769 0.972
-0.076852366 -0.24583769 0.972
-0.075054646 -0.24583769 0.972
-0.073256932 -0.24583769 0.972
-0.071312182 -0.24533185 0.97000003
-0.069446489 -0.24507892 0.96899998
-0.067654327 -0.24507892 0.96899998
-0.065862156 -0.24507892 0.96899998
-0.06413611 -0.24533185 0.97000003
-0.062342092 -0.24533185 0.97000003
-0.060548082 -0.24533185 0.97000003
-0.058754064 -0.24533185 0.97000003
-0.056960046 -0.24533185 0.97000003
-0.055166028 -0.24533185 0.97000003
-0.053372011 -0.24533185 0.97000003
-0.051577993 -0.24533185 0.97000003
-0.049783975 -0.24533185 0.97000003
-0.047940481 -0.24507892 0.96899998
-0.046100691 -0.24482602 0.96799999
-0.044310372 -0.24482602 0.96799999
-0.042476129 -0.2445731 0.96700001
-0.040687662 -0.2445731 0.96700001
-0.038899191 -0.2445731 0.96700001
-0.037149101 -0.24482602 0.96799999
-0.035358783 -0.24482602 0.96799999
-0.033603143 -0.24507892 0.96899998
-0.031810973 -0.24507892 0.96899998
-0.029987829 -0.24482602 0.96799999
-0.028168382 -0.2445731 0.96700001
-0.026352633 -0.24432018 0.96600002
-0.024540581 -0.24406725 0.96499997
-0.022755811 -0.24406725 0.96499997
-0.020971043 -0.24406725 0.96499997
-0.019186273 -0.24406725 0.96499997
-0.017401503 -0.24406725 0.96499997
-0.015616733 -0.24406725 0.96499997
-0.013831965 -0.24406725 0.96499997
-0.012047195 -0.24406725 0.96499997
-0.010262425 -0.24406725 0.96499997
-0.0084776552 -0.24406725 0.96499997
-0.0066998219 -0.24432018 0.96600002
-0.0049132025 -0.24432018 0.96600002
-0.0031265835 -0.24432018 0.96600002
-0.0013399643 -0.24432018 0.96600002
0.0004461924 -0.24406725 0.96499997
0.0022309618 -0.24406725 0.96499997
0.0040198928 -0.24432018 0.96600002
0.0058065122 -0.24432018 0.96600002
0.0075852703 -0.24406725 0.96499997
0.0093700401 -0.24406725 0.96499997
0.01114325 -0.24381433 0.96399999
0.012926171 -0.24381433 0.96399999
0.014724349 -0.24406725 0.96499997
0.016509118 -0.24406725 0.96499997
0.018312845 -0.24432018 0.96600002
0.020099465 -0.24432018 0.96600002
0.021863427 -0.24406725 0.96499997
0.023648197 -0.24406725 0.96499997
0.025432967 -0.24406725 0.96499997
0.027217736 -0.24406725 0.96499997
0.029002506 -0.24406725 0.96499997
0.030787274 -0.24406725 0.96499997
0.032605797 -0.24432018 0.96600002
0.034356814 -0.24406725 0.96499997
0.036104131 -0.24381433 0.96399999
0.037926354 -0.24406725 0.96499997
0.039669972 -0.24381433 0.96399999
0.041409891 -0.24356142 0.963
0.043190964 -0.24356142 0.963
0.045018733 -0.24381433 0.96399999
0.046801653 -0.24381433 0.96399999
0.048584573 -0.24381433 0.96399999
0.050315246 -0.24356142 0.963
0.05204222 -0.2433085 0.96200001
0.053765494 -0.24305558 0.96100003
0.055542864 -0.24305558 0.96100003
0.057320237 -0.24305558 0.96100003
0.059097607 -0.24305558 0.96100003
0.060874976 -0.24305558 0.96100003
0.062652349 -0.24305558 0.96100003
0.064429723 -0.24305558 0.96100003
0.066207089 -0.24305558 0.96100003
0.067984462 -0.24305558 0.96100003
0.069761835 -0.24305558 0.96100003
0.071539208 -0.24305558 0.96100003
0.073392868 -0.2433085 0.96200001
0.075172089 -0.2433085 0.96200001
0.07695131 -0.2433085 0.96200001
0.078648694 -0.24305558 0.96100003
0.080342375 -0.24280265 0.95999998
0.08220344 -0.24305558 0.96100003
0.083980806 -0.24305558 0.96100003
0.085668936 -0.24280265 0.95999998
0.087535553 -0.24305558 0.96100003
0.089312926 -0.24305558 0.96100003
0.091090299 -0.24305558 0.96100003
0.092867665 -0.24305558 0.96100003
0.094645038 -0.24305558 0.96100003
0.096422412 -0.24305558 0.96100003
0.098199785 -0.24305558 0.96100003
0.099977158 -0.24305558 0.96100003
0.10164864 -0.24280265 0.95999998
0.10342416 -0.24280265 0.95999998
0.1050901 -0.24254973 0.95899999
0.10686377 -0.24254973 0.95899999
0.10863744 -0.24254973 0.95899999
0.11041112 -0.24254973 0.95899999
0.11218479 -0.24254973 0.95899999
0.11395846 -0.24254973 0.95899999
0.11573214 -0.24254973 0.95899999
0.11738328 -0.24229681 0.958
0.11903073 -0.2420439 0.95700002
0.1208007 -0.2420439 0.95700002
0.12244259 -0.24179098 0.95599997
0.12408079 -0.24153806 0.95499998
0.12584707 -0.24153806 0.95499998
0.12761334 -0.24153806 0.95499998
0.12937962 -0.24153806 0.95499998
0.13100857 -0.24128515 0.954
0.132773 -0.24128515 0.954
0.13425536 -0.24077931 0.95200002
0.1360161 -0.24077931 0.95200002
0.13777682 -0.24077931 0.95200002
0.13968413 -0.24103223 0.95300001
0.14129828 -0.24077931 0.95200002
0.143059 -0.24077931 0.95200002
0.1446676 -0.24052638 0.95099998
0.14642647 -0.24052638 0.95099998
0.14818536 -0.24052638 0.95099998
0.14994423 -0.24052638 0.95099998
0.1517031 -0.24052638 0.95099998
0.15346198 -0.24052638 0.95099998
0.15489443 -0.24002054 0.949
0.15648454 -0.23976763 0.94800001
0.15823786 -0.23976763 0.94800001
0.15982243 -0.23951471 0.94700003
0.16174452 -0.23976763 0.94800001
0.16367032 -0.24002054 0.949
0.16542549 -0.24002054 0.949
0.16718067 -0.24002054 0.949
0.16893585 -0.24002054 0.949
0.17069103 -0.24002054 0.949
0.17226449 -0.23976763 0.94800001
0.17383426 -0.23951471 0.94700003
0.17558573 -0.23951471 0.94700003
0.17714995 -0.23926178 0.94599998
0.17889957 -0.23926178 0.94599998
0.18064921 -0.23926178 0.94599998
0.18239883 -0.23926178 0.94599998
0.18414846 -0.23926178 0.94599998
0.18570158 -0.23900886 0.94499999
0.187251 -0.23875594 0.94400001
0.18899694 -0.23875594 0.94400001
0.19074287 -0.23875594 0.94400001
0.1924888 -0.23875594 0.94400001
0.19444048 -0.23900886 0.94499999
0.19639586 -0.23926178 0.94599998
0.19814549 -0.23926178 0.94599998
0.19989513 -0.23926178 0.94599998
0.2014316 -0.23900886 0.94499999
0.20296438 -0.23875594 0.94400001
0.20449346 -0.23850304 0.94300002
0.20645624 -0.23875594 0.94400001
0.20798162 -0.23850304 0.94300002
0.20972571 -0.23850304 0.94300002
0.21146978 -0.23850304 0.94300002
0.21321386 -0.23850304 0.94300002
0.21472998 -0.23825011 0.94199997
0.21624242 -0.23799719 0.94099998
0.2179828 -0.23799719 0.94099998
0.21948968 -0.23774427 0.94
0.22122821 -0.23774427 0.94
0.22320393 -0.23799719 0.94099998
0.22494431 -0.23799719 0.94099998
0.22692558 -0.23825011 0.94199997
0.22866781 -0.23825011 0.94199997
0.23041005 -0.23825011 0.94199997
0.23461676 -0.24077931 0.95200002
-0.37461159 -0.25081888 0.99900001
-0.37015197 -0.24906138 0.99199998
-0.36794597 -0.24881031 0.991
-0.3661131 -0.24881031 0.991
-0.36391267 -0.24855924 0.99000001
-0.36171591 -0.24830817 0.98900002
-0.36025065 -0.24855924 0.99000001
-0.35805762 -0.24830817 0.98900002
-0.35622844 -0.24830817 0.98900002
-0.35439929 -0.24830817 0.98900002
-0.35221362 -0.24805708 0.98799998
-0.35038635 -0.24805708 0.98799998
-0.34855905 -0.24805708 0.98799998
-0.3463808 -0.24780603 0.98699999
-0.34455535 -0.24780603 0.98699999
-0.34272987 -0.24780603 0.98699999
-0.34090441 -0.24780603 0.98699999
-0.34010962 -0.24855924 0.99000001
-0.33896199 -0.24906138 0.99199998
-0.3374671 -0.24931243 0.99299997
-0.33563057 -0.24931243 0.99299997
-0.33312172 -0.24881031 0.991
-0.33095455 -0.24855924 0.99000001
-0.32845864 -0.24805708 0.98799998
-0.32630074 -0.24780603 0.98699999
-0.32414654 -0.24755496 0.986
-0.32264984 -0.24780603 0.98699999
-0.32082438 -0.24780603 0.98699999
-0.3189989 -0.24780603 0.98699999
-0.31749481 -0.24805708 0.98799998
-0.315348 -0.24780603 0.98699999
-0.31352255 -0.24780603 0.98699999
-0.31169707 -0.24780603 0.98699999
-0.30987161 -0.24780603 0.98699999
-0.30804616 -0.24780603 0.98699999
-0.30622071 -0.24780603 0.98699999
-0.30439523 -0.24780603 0.98699999
-0.30226323 -0.24755496 0.986
-0.30043963 -0.24755496 0.986
-0.29831317 -0.24730389 0.98500001
-0.29619041 -0.24705282 0.98400003
-0.2943705 -0.24705282 0.98400003
-0.29255059 -0.24705282 0.98400003
-0.29073066 -0.24705282 0.98400003
-0.28891075 -0.24705282 0.98400003
-0.28709084 -0.24705282 0.98400003
-0.28527093 -0.24705282 0.98400003
-0.28345102 -0.24705282 0.98400003
-0.28163111 -0.24705282 0.98400003
-0.28009558 -0.24730389 0.98500001
-0.27827379 -0.24730389 0.98500001
-0.27645203 -0.24730389 0.98500001
-0.27463028 -0.24730389 0.98500001
-0.27280852 -0.24730389 0.98500001
-0.27071166 -0.24705282 0.98400003
-0.26861846 -0.24680173 0.98299998
-0.2668004 -0.24680173 0.98299998
-0.26498234 -0.24680173 0.98299998
-0.26343203 -0.24705282 0.98400003
-0.26187795 -0.24730389 0.98500001
-0.25979218 -0.24705282 0.98400003
-0.25797227 -0.24705282 0.98400003
-0.25615236 -0.24705282 0.98400003
-0.25433245 -0.24705282 0.98400003
-0.25225592 -0.24680173 0.98299998
-0.25043786 -0.24680173 0.98299998
-0.24836688 -0.24655068 0.98199999
-0.24655068 -0.24655068 0.98199999
-0.24473445 -0.24655068 0.98199999
-0.24291824 -0.24655068 0.98199999
-0.24110202 -0.24655068 0.98199999
-0.23904215 -0.24629961 0.98100001
-0.23722778 -0.24629961 0.98100001
-0.23541342 -0.24629961 0.98100001
-0.23383717 -0.24655068 0.98199999
-0.23225725 -0.24680173 0.98299998
-0.23043919 -0.24680173 0.98299998
-0.22862113 -0.24680173 0.98299998
-0.22680306 -0.24680173 0.98299998
-0.22475614 -0.24655068 0.98199999
-0.22293992 -0.24655068 0.98199999
-0.22112371 -0.24655068 0.98199999
-0.2193075 -0.24655068 0.98199999
-0.2174913 -0.24655068 0.98199999
-0.21545546 -0.24629961 0.98100001
-0.21342331 -0.24604854 0.98000002
-0.21161081 -0.24604854 0.98000002
-0.20958421 -0.24579746 0.97899997
-0.20756131 -0.24554639 0.97799999
-0.20575251 -0.24554639 0.97799999
-0.20394368 -0.24554639 0.97799999
-0.20234156 -0.24579746 0.97899997
-0.20053089 -0.24579746 0.97899997
-0.19851725 -0.24554639 0.97799999
-0.1965073 -0.24529533 0.977
-0.19450106 -0.24504426 0.97600001
-0.19269595 -0.24504426 0.97600001
-0.19108641 -0.24529533 0.977
-0.18927945 -0.24529533 0.977
-0.18766436 -0.24554639 0.97799999
-0.18604559 -0.24579746 0.97899997
-0.18423493 -0.24579746 0.97899997
-0.18223792 -0.24554639 0.97799999
-0.18042912 -0.24554639 0.97799999
-0.17825502 -0.24504426 0.97600001
-0.17644991 -0.24504426 0.97600001
-0.17446586 -0.24479319 0.97500002
-0.1724855 -0.24454211 0.97399998
-0.17068408 -0.24454211 0.97399998
-0.16888267 -0.24454211 0.97399998
-0.16725281 -0.24479319 0.97500002
-0.16544954 -0.24479319 0.97500002
-0.16364628 -0.24479319 0.97500002
-0.162009 -0.24504426 0.97600001
-0.16020389 -0.24504426 0.97600001
-0.15839878 -0.24504426 0.97600001
-0.15675411 -0.24529533 0.977
-0.15494713 -0.24529533 0.977
-0.15314017 -0.24529533 0.977
-0.15117832 -0.24504426 0.97600001
-0.14922015 -0.24479319 0.97500002
-0.14741689 -0.24479319 0.97500002
-0.14561363 -0.24479319 0.97500002
-0.14395785 -0.24504426 0.97600001
-0.14229839 -0.24529533 0.977
-0.14049143 -0.24529533 0.977
-0.13854252 -0.24504426 0.97600001
-0.13673741 -0.24504426 0.97600001
-0.13493228 -0.24504426 0.97600001
-0.13326357 -0.24529533 0.977
-0.13159116 -0.24554639 0.97799999
-0.13031316 -0.24655068 0.98199999
-0.12928206 -0.24805708 0.98799998
-0.12784176 -0.24881031 0.991
-0.12689897 -0.25056779 0.99800003
-0.10063511 -0.24504426 0.97600001
-0.098627478 -0.24454211 0.97399998
-0.096826062 -0.24454211 0.97399998
-0.094927087 -0.24429104 0.97299999
-0.093031809 -0.24403998 0.972
-0.091140233 -0.24378891 0.97100002
-0.089252353 -0.24353784 0.97000003
-0.087458335 -0.24353784 0.97000003
-0.085752629 -0.24378891 0.97100002
-0.083956763 -0.24378891 0.97100002
-0.082160898 -0.24378891 0.97100002
-0.080282271 -0.24353784 0.97000003
-0.078569166 -0.24378891 0.97100002
-0.076773301 -0.24378891 0.97100002
-0.074977428 -0.24378891 0.97100002
-0.073181562 -0.24378891 0.97100002
-0.071312182 -0.24353784 0.97000003
-0.069374822 -0.24303569 0.96799999
-0.067584507 -0.24303569 0.96799999
-0.065794185 -0.24303569 0.96799999
-0.064069986 -0.24328676 0.96899998
-0.06227782 -0.24328676 0.96899998
-0.060548082 -0.24353784 0.97000003
-0.058754064 -0.24353784 0.97000003
-0.056960046 -0.24353784 0.97000003
-0.055109154 -0.24328676 0.96899998
-0.053316984 -0.24328676 0.96899998
-0.051524818 -0.24328676 0.96899998
-0.049732652 -0.24328676 0.96899998
-0.04789101 -0.24303569 0.96799999
-0.046100691 -0.24303569 0.96799999
-0.0442646 -0.24278463 0.96700001
-0.042432204 -0.24253356 0.96600002
-0.040645584 -0.24253356 0.96600002
-0.038858965 -0.24253356 0.96600002
-0.037110724 -0.24278463 0.96700001
-0.035322253 -0.24278463 0.96700001
-0.033568464 -0.24303569 0.96799999
-0.031778146 -0.24303569 0.96799999
-0.029956849 -0.24278463 0.96700001
-0.028139252 -0.24253356 0.96600002
-0.026325351 -0.24228248 0.96499997
-0.024515152 -0.24203141 0.96399999
-0.022732232 -0.24203141 0.96399999
-0.020949312 -0.24203141 0.96399999
-0.019166391 -0.24203141 0.96399999
-0.017383471 -0.24203141 0.96399999
-0.015616733 -0.24228248 0.96499997
-0.013817631 -0.24203141 0.96399999
-0.012047195 -0.24228248 0.96499997
-0.01025179 -0.24203141 0.96399999
-0.0084688701 -0.24203141 0.96399999
-0.0066928859 -0.24228248 0.96499997
-0.0049081161 -0.24228248 0.96499997
-0.0031265835 -0.24253356 0.96600002
-0.0013385771 -0.24228248 0.96499997
0.0004461924 -0.24228248 0.96499997
0.0022309618 -0.24228248 0.96499997
0.0040157312 -0.24228248 0.96499997
0.005800501 -0.24228248 0.96499997
0.0075852703 -0.24228248 0.96499997
0.0093603302 -0.24203141 0.96399999
0.011131691 -0.24178034 0.963
0.012926171 -0.24203141 0.96399999
0.014709091 -0.24203141 0.96399999
0.016492011 -0.24203141 0.96399999
0.018293887 -0.24228248 0.96499997
0.020078657 -0.24228248 0.96499997
0.021840772 -0.24203141 0.96399999
0.023623692 -0.24203141 0.96399999
0.025380256 -0.24178034 0.963
0.027161326 -0.24178034 0.963
0.028942397 -0.24178034 0.963
0.030755371 -0.24203141 0.96399999
0.032538291 -0.24203141 0.96399999
0.034321211 -0.24203141 0.96399999
0.036104131 -0.24203141 0.96399999
0.037887052 -0.24203141 0.96399999
0.039628819 -0.24178034 0.963
0.04136689 -0.24152929 0.96200001
0.043190964 -0.24178034 0.963
0.044972032 -0.24178034 0.963
0.046753105 -0.24178034 0.963
0.048534174 -0.24178034 0.963
0.050262999 -0.24152929 0.96200001
0.051988121 -0.24127822 0.96100003
0.053765494 -0.24127822 0.96100003
0.055542864 -0.24127822 0.96100003
0.057260588 -0.24102713 0.95999998
0.05903611 -0.24102713 0.95999998
0.060874976 -0.24127822 0.96100003
0.062652349 -0.24127822 0.96100003
0.064429723 -0.24127822 0.96100003
0.066207089 -0.24127822 0.96100003
0.067984462 -0.24127822 0.96100003
0.069761835 -0.24127822 0.96100003
0.071539208 -0.24127822 0.96100003
0.073316582 -0.24127822 0.96100003
0.075093947 -0.24127822 0.96100003
0.076791331 -0.24102713 0.95999998
0.078566849 -0.24102713 0.95999998
0.080258682 -0.24077606 0.95899999
0.082117893 -0.24102713 0.95999998
0.08380603 -0.24077606 0.95899999
0.085579701 -0.24077606 0.95899999
0.087353371 -0.24077606 0.95899999
0.08921998 -0.24102713 0.95999998
0.090995505 -0.24102713 0.95999998
0.092771031 -0.24102713 0.95999998
0.094546549 -0.24102713 0.95999998
0.096322075 -0.24102713 0.95999998
0.098097593 -0.24102713 0.95999998
0.099873118 -0.24102713 0.95999998
0.10154276 -0.24077606 0.95899999
0.1032087 -0.24052499 0.958
0.10498052 -0.24052499 0.958
0.10675234 -0.24052499 0.958
0.10852417 -0.24052499 0.958
0.11041112 -0.24077606 0.95899999
0.11218479 -0.24077606 0.95899999
0.11383963 -0.24052499 0.958
0.11561146 -0.24052499 0.958
0.11726075 -0.24027394 0.95700002
0.11890634 -0.24002285 0.95599997
0.12067447 -0.24002285 0.95599997
0.12231451 -0.23977178 0.95499998
0.12395086 -0.23952071 0.954
0.12584707 -0.23977178 0.95499998
0.12761334 -0.23977178 0.95499998
0.12937962 -0.23977178 0.95499998
0.13100857 -0.23952071 0.954
0.13263382 -0.23926964 0.95300001
0.13425536 -0.23901859 0.95200002
0.1360161 -0.23901859 0.95200002
0.13777682 -0.23901859 0.95200002
0.13953754 -0.23901859 0.95200002
0.14129828 -0.23901859 0.95200002
0.143059 -0.23901859 0.95200002
0.1446676 -0.2387675 0.95099998
0.14627251 -0.23851644 0.94999999
0.14818536 -0.2387675 0.95099998
0.14994423 -0.2387675 0.95099998
0.15154359 -0.23851644 0.94999999
0.15330061 -0.23851644 0.94999999
0.15473121 -0.2380143 0.94800001
0.15631947 -0.23776323 0.94700003
0.15807095 -0.23776323 0.94700003
0.15982243 -0.23776323 0.94700003
0.1615739 -0.23776323 0.94700003
0.16349785 -0.2380143 0.94800001
0.16525118 -0.2380143 0.94800001
0.16700451 -0.2380143 0.94800001
0.16893585 -0.23826537 0.949
0.17051116 -0.2380143 0.94800001
0.17208278 -0.23776323 0.94700003
0.17365068 -0.23751216 0.94599998
0.17540032 -0.23751216 0.94599998
0.17696269 -0.23726109 0.94499999
0.17852135 -0.23701002 0.94400001
0.18045825 -0.23726109 0.94499999
0.18220602 -0.23726109 0.94499999
0.18395381 -0.23726109 0.94499999
0.18570158 -0.23726109 0.94499999
0.187251 -0.23701002 0.94400001
0.18879673 -0.23675895 0.94300002
0.19054081 -0.23675895 0.94300002
0.1922849 -0.23675895 0.94300002
0.19423473 -0.23701002 0.94400001
0.19618826 -0.23726109 0.94499999
0.19793604 -0.23726109 0.94499999
0.19968382 -0.23726109 0.94499999
0.20121846 -0.23701002 0.94400001
0.20296438 -0.23701002 0.94400001
0.20449346 -0.23675895 0.94300002
0.20645624 -0.23701002 0.94400001
0.20820217 -0.23701002 0.94400001
0.20994811 -0.23701002 0.94400001
0.21169403 -0.23701002 0.94400001
0.21343996 -0.23701002 0.94400001
0.21495794 -0.23675895 0.94300002
0.21647221 -0.23650786 0.94199997
0.2179828 -0.23625681 0.94099998
0.21948968 -0.23600574 0.94
0.22122821 -0.23600574 0.94
0.22296673 -0.23600574 0.94
0.22494431 -0.23625681 0.94099998
0.22668469 -0.23625681 0.94099998
0.22866781 -0.23650786 0.94199997
0.23236683 -0.23851644 0.94999999
0.23412386 -0.23851644 0.94999999
-0.37461159 -0.24897119 0.99900001
-0.37015197 -0.24722666 0.99199998
-0.36794597 -0.24697743 0.991
-0.36574367 -0.24672821 0.99000001
-0.36391267 -0.24672821 0.99000001
-0.36208165 -0.24672821 0.99000001
-0.36025065 -0.24672821 0.99000001
-0.35841966 -0.24672821 0.99000001
-0.35658863 -0.24672821 0.99000001
-0.35439929 -0.24647899 0.98900002
-0.35257015 -0.24647899 0.98900002
-0.35038635 -0.24622977 0.98799998
-0.34820625 -0.24598055 0.98699999
-0.34602985 -0.24573132 0.986
-0.34420624 -0.24573132 0.986
-0.34238264 -0.24573132 0.986
-0.34055904 -0.24573132 0.986
-0.34010962 -0.24672821 0.99000001
-0.33896199 -0.24722666 0.99199998
-0.3374671 -0.24747586 0.99299997
-0.33563057 -0.24747586 0.99299997
-0.33312172 -0.24697743 0.991
-0.33095455 -0.24672821 0.99000001
-0.32845864 -0.24622977 0.98799998
-0.32597014 -0.24573132 0.986
-0.32381779 -0.24548212 0.98500001
-0.32232293 -0.24573132 0.986
-0.32049933 -0.24573132 0.986
-0.3189989 -0.24598055 0.98699999
-0.31717345 -0.24598055 0.98699999
-0.315348 -0.24598055 0.98699999
-0.31352255 -0.24598055 0.98699999
-0.31138128 -0.24573132 0.986
-0.30955768 -0.24573132 0.986
-0.30804616 -0.24598055 0.98699999
-0.30622071 -0.24598055 0.98699999
-0.30439523 -0.24598055 0.98699999
-0.30226323 -0.24573132 0.986
-0.30013493 -0.24548212 0.98500001
-0.29801032 -0.2452329 0.98400003
-0.29619041 -0.2452329 0.98400003
-0.2943705 -0.2452329 0.98400003
-0.29255059 -0.2452329 0.98400003
-0.29073066 -0.2452329 0.98400003
-0.28891075 -0.2452329 0.98400003
-0.28709084 -0.2452329 0.98400003
-0.28556085 -0.24548212 0.98500001
-0.28373909 -0.24548212 0.98500001
-0.28191733 -0.24548212 0.98500001
-0.2798112 -0.2452329 0.98400003
-0.27799129 -0.2452329 0.98400003
-0.27645203 -0.24548212 0.98500001
-0.27463028 -0.24548212 0.98500001
-0.27253157 -0.2452329 0.98400003
-0.27098677 -0.24548212 0.98500001
-0.26889175 -0.2452329 0.98400003
-0.2668004 -0.24498366 0.98299998
-0.26498234 -0.24498366 0.98299998
-0.26343203 -0.2452329 0.98400003
-0.26161212 -0.2452329 0.98400003
-0.25979218 -0.2452329 0.98400003
-0.25797227 -0.2452329 0.98400003
-0.25615236 -0.2452329 0.98400003
-0.25433245 -0.2452329 0.98400003
-0.25251254 -0.2452329 0.98400003
-0.25043786 -0.24498366 0.98299998
-0.24861979 -0.24498366 0.98299998
-0.24655068 -0.24473445 0.98199999
-0.24448523 -0.24448523 0.98100001
-0.24267086 -0.24448523 0.98100001
-0.24085651 -0.24448523 0.98100001
-0.23904215 -0.24448523 0.98100001
-0.23722778 -0.24448523 0.98100001
-0.23541342 -0.24448523 0.98100001
-0.23383717 -0.24473445 0.98199999
-0.23225725 -0.24498366 0.98299998
-0.23043919 -0.24498366 0.98299998
-0.22862113 -0.24498366 0.98299998
-0.22657235 -0.24473445 0.98199999
-0.22475614 -0.24473445 0.98199999
-0.22293992 -0.24473445 0.98199999
-0.22089854 -0.24448523 0.98100001
-0.21908417 -0.24448523 0.98100001
-0.21726982 -0.24448523 0.98100001
-0.21545546 -0.24448523 0.98100001
-0.21364109 -0.24448523 0.98100001
-0.21182673 -0.24448523 0.98100001
-0.20979829 -0.24423601 0.98000002
-0.20777354 -0.24398679 0.97899997
-0.20596288 -0.24398679 0.97899997
-0.20415221 -0.24398679 0.97899997
-0.20234156 -0.24398679 0.97899997
-0.20053089 -0.24398679 0.97899997
-0.19851725 -0.24373756 0.97799999
-0.1965073 -0.24348834 0.977
-0.19450106 -0.24323913 0.97600001
-0.19269595 -0.24323913 0.97600001
-0.19108641 -0.24348834 0.977
-0.18927945 -0.24348834 0.977
-0.18766436 -0.24373756 0.97799999
-0.18604559 -0.24398679 0.97899997
-0.18423493 -0.24398679 0.97899997
-0.18223792 -0.24373756 0.97799999
-0.18024462 -0.24348834 0.977
-0.17825502 -0.24323913 0.97600001
-0.17644991 -0.24323913 0.97600001
-0.17446586 -0.24298991 0.97500002
-0.1724855 -0.24274068 0.97399998
-0.17085934 -0.24298991 0.97500002
-0.16905607 -0.24298991 0.97500002
-0.16725281 -0.24298991 0.97500002
-0.16544954 -0.24298991 0.97500002
-0.16364628 -0.24298991 0.97500002
-0.162009 -0.24323913 0.97600001
-0.16003974 -0.24298991 0.97500002
-0.15839878 -0.24323913 0.97600001
-0.15659365 -0.24323913 0.97600001
-0.15478854 -0.24323913 0.97600001
-0.15298343 -0.24323913 0.97600001
-0.15102342 -0.24298991 0.97500002
-0.1490671 -0.24274068 0.97399998
-0.14741689 -0.24298991 0.97500002
-0.14561363 -0.24298991 0.97500002
-0.14395785 -0.24323913 0.97600001
-0.14229839 -0.24348834 0.977
-0.14049143 -0.24348834 0.977
-0.13868447 -0.24348834 0.977
-0.13687749 -0.24348834 0.977
-0.13493228 -0.24323913 0.97600001
-0.13312717 -0.24323913 0.97600001
-0.13145661 -0.24348834 0.977
-0.13018045 -0.24448523 0.98100001
-0.12928206 -0.24622977 0.98799998
-0.12784176 -0.24697743 0.991
-0.12689897 -0.24872199 0.99800003
-0.104993 -0.24498366 0.98299998
-0.10286006 -0.24423601 0.98000002
-0.100532 -0.24298991 0.97500002
-0.098627478 -0.24274068 0.97399998
-0.096826062 -0.24274068 0.97399998
-0.094927087 -0.24249147 0.97299999
-0.093031809 -0.24224225 0.972
-0.091234095 -0.24224225 0.972
-0.089344367 -0.24199302 0.97100002
-0.087458335 -0.24174382 0.97000003
-0.085752629 -0.24199302 0.97100002
-0.083956763 -0.24199302 0.97100002
-0.082076281 -0.24174382 0.97000003
-0.080282271 -0.24174382 0.97000003
-0.078569166 -0.24199302 0.97100002
-0.076773301 -0.24199302 0.97100002
-0.074977428 -0.24199302 0.97100002
-0.073256932 -0.24224225 0.972
-0.071385697 -0.24199302 0.97100002
-0.069518164 -0.24174382 0.97000003
-0.067724146 -0.24174382 0.97000003
-0.065930128 -0.24174382 0.97000003
-0.064202227 -0.24199302 0.97100002
-0.062406365 -0.24199302 0.97100002
-0.06067292 -0.24224225 0.972
-0.058814634 -0.24199302 0.97100002
-0.057018768 -0.24199302 0.97100002
-0.055222899 -0.24199302 0.97100002
-0.053372011 -0.24174382 0.97000003
-0.051524818 -0.24149458 0.96899998
-0.049732652 -0.24149458 0.96899998
-0.047940481 -0.24149458 0.96899998
-0.046148315 -0.24149458 0.96899998
-0.044310372 -0.24124536 0.96799999
-0.042476129 -0.24099614 0.96700001
-0.040687662 -0.24099614 0.96700001
-0.038899191 -0.24099614 0.96700001
-0.037110724 -0.24099614 0.96700001
-0.035322253 -0.24099614 0.96700001
-0.033568464 -0.24124536 0.96799999
-0.031745318 -0.24099614 0.96700001
-0.029925872 -0.24074693 0.96600002
-0.02811012 -0.24049769 0.96499997
-0.026298072 -0.24024847 0.96399999
-0.024515152 -0.24024847 0.96399999
-0.022732232 -0.24024847 0.96399999
-0.020949312 -0.24024847 0.96399999
-0.019166391 -0.24024847 0.96399999
-0.017401503 -0.24049769 0.96499997
-0.015616733 -0.24049769 0.96499997
-0.013831965 -0.24049769 0.96499997
-0.012047195 -0.24049769 0.96499997
-0.010262425 -0.24049769 0.96499997
-0.0084776552 -0.24049769 0.96499997
-0.0066928859 -0.24049769 0.96499997
-0.0049132025 -0.24074693 0.96600002
-0.0031298201 -0.24099614 0.96700001
-0.0013413514 -0.24099614 0.96700001
0.00044711717 -0.24099614 0.96700001
0.0022355858 -0.24099614 0.96700001
0.0040240544 -0.24099614 0.96700001
0.0058065122 -0.24074693 0.96600002
0.0075852703 -0.24049769 0.96499997
0.0093700401 -0.24049769 0.96499997
0.01114325 -0.24024847 0.96399999
0.012926171 -0.24024847 0.96399999
0.014709091 -0.24024847 0.96399999
0.016492011 -0.24024847 0.96399999
0.018293887 -0.24049769 0.96499997
0.020078657 -0.24049769 0.96499997
0.021840772 -0.24024847 0.96399999
0.023599185 -0.23999926 0.963
0.025380256 -0.23999926 0.963
0.027161326 -0.23999926 0.963
0.028942397 -0.23999926 0.963
0.030755371 -0.24024847 0.96399999
0.032538291 -0.24024847 0.96399999
0.034356814 -0.24049769 0.96499997
0.036141582 -0.24049769 0.96499997
0.037926354 -0.24049769 0.96499997
0.039669972 -0.24024847 0.96399999
0.041409891 -0.23999926 0.963
0.043190964 -0.23999926 0.963
0.044925332 -0.23975004 0.96200001
0.046704553 -0.23975004 0.96200001
0.048483774 -0.23975004 0.96200001
0.050262999 -0.23975004 0.96200001
0.05204222 -0.23975004 0.96200001
0.053821441 -0.23975004 0.96200001
0.055600662 -0.23975004 0.96200001
0.057379883 -0.23975004 0.96200001
0.059159104 -0.23975004 0.96200001
0.060938321 -0.23975004 0.96200001
0.062717542 -0.23975004 0.96200001
0.064496763 -0.23975004 0.96200001
0.066275984 -0.23975004 0.96200001
0.068055205 -0.23975004 0.96200001
0.069834426 -0.23975004 0.96200001
0.071613647 -0.23975004 0.96200001
0.073392868 -0.23975004 0.96200001
0.075093947 -0.23950082 0.96100003
0.076871321 -0.23950082 0.96100003
0.078566849 -0.2392516 0.95999998
0.080258682 -0.23900238 0.95899999
0.082117893 -0.2392516 0.95999998
0.083893418 -0.2392516 0.95999998
0.085579701 -0.23900238 0.95899999
0.087353371 -0.23900238 0.95899999
0.089127049 -0.23900238 0.95899999
0.090995505 -0.2392516 0.95999998
0.092771031 -0.2392516 0.95999998
0.094645038 -0.23950082 0.96100003
0.096422412 -0.23950082 0.96100003
0.098097593 -0.2392516 0.95999998
0.099873118 -0.2392516 0.95999998
0.10154276 -0.23900238 0.95899999
0.1032087 -0.23875315 0.958
0.10498052 -0.23875315 0.958
0.10675234 -0.23875315 0.958
0.10863744 -0.23900238 0.95899999
0.11041112 -0.23900238 0.95899999
0.11218479 -0.23900238 0.95899999
0.11383963 -0.23875315 0.958
0.11549078 -0.23850395 0.95700002
0.11713822 -0.23825471 0.95599997
0.11890634 -0.23825471 0.95599997
0.12054824 -0.23800549 0.95499998
0.12218644 -0.23775628 0.954
0.12395086 -0.23775628 0.954
0.12571529 -0.23775628 0.954
0.12747972 -0.23775628 0.954
0.12924413 -0.23775628 0.954
0.13100857 -0.23775628 0.954
0.132773 -0.23775628 0.954
0.13439639 -0.23750706 0.95300001
0.1360161 -0.23725784 0.95200002
0.13777682 -0.23725784 0.95200002
0.13968413 -0.23750706 0.95300001
0.14129828 -0.23725784 0.95200002
0.143059 -0.23725784 0.95200002
0.1446676 -0.23700862 0.95099998
0.14627251 -0.23675939 0.94999999
0.14802954 -0.23675939 0.94999999
0.14978656 -0.23675939 0.94999999
0.15154359 -0.23675939 0.94999999
0.15313925 -0.23651017 0.949
0.15473121 -0.23626095 0.94800001
0.15631947 -0.23601174 0.94700003
0.15807095 -0.23601174 0.94700003
0.15982243 -0.23601174 0.94700003
0.16174452 -0.23626095 0.94800001
0.16349785 -0.23626095 0.94800001
0.16525118 -0.23626095 0.94800001
0.16700451 -0.23626095 0.94800001
0.16893585 -0.23651017 0.949
0.17051116 -0.23626095 0.94800001
0.17208278 -0.23601174 0.94700003
0.17365068 -0.23576251 0.94599998
0.17540032 -0.23576251 0.94599998
0.17677543 -0.23526408 0.94400001
0.17852135 -0.23526408 0.94400001
0.18045825 -0.23551328 0.94499999
0.18220602 -0.23551328 0.94499999
0.18395381 -0.23551328 0.94499999
0.18570158 -0.23551328 0.94499999
0.187251 -0.23526408 0.94400001
0.18879673 -0.23501486 0.94300002
0.19054081 -0.23501486 0.94300002
0.1922849 -0.23501486 0.94300002
0.19423473 -0.23526408 0.94400001
0.19618826 -0.23551328 0.94499999
0.19793604 -0.23551328 0.94499999
0.19968382 -0.23551328 0.94499999
0.20121846 -0.23526408 0.94400001
0.20296438 -0.23526408 0.94400001
0.2047103 -0.23526408 0.94400001
0.20645624 -0.23526408 0.94400001
0.20820217 -0.23526408 0.94400001
0.20994811 -0.23526408 0.94400001
0.21169403 -0.23526408 0.94400001
0.21343996 -0.23526408 0.94400001
0.21495794 -0.23501486 0.94300002
0.21670203 -0.23501486 0.94300002
0.21821444 -0.23476562 0.94199997
0.21972318 -0.23451641 0.94099998
0.22146356 -0.23451641 0.94099998
0.22320393 -0.23451641 0.94099998
0.22494431 -0.23451641 0.94099998
0.22692558 -0.23476562 0.94199997
0.22866781 -0.23476562 0.94199997
0.23187764 -0.23626095 0.94800001
0.23363097 -0.23626095 0.94800001
-0.37423658 -0.24687618 0.99800003
-0.37052509 -0.24563931 0.99299997
-0.36794597 -0.24514458 0.991
-0.3661131 -0.24514458 0.991
-0.36391267 -0.2448972 0.99000001
-0.36244738 -0.24514458 0.991
-0.36097842 -0.24539194 0.99199998
-0.3591437 -0.24539194 0.99199998
-0.35694882 -0.24514458 0.991
-0.35511598 -0.24514458 0.991
-0.35292661 -0.2448972 0.99000001
-0.35038635 -0.24440245 0.98799998
-0.34820625 -0.24415509 0.98699999
-0.34602985 -0.24390772 0.986
-0.34420624 -0.24390772 0.986
-0.34272987 -0.24415509 0.98699999
-0.34090441 -0.24415509 0.98699999
-0.34010962 -0.2448972 0.99000001
-0.33930367 -0.24563931 0.99299997
-0.3374671 -0.24563931 0.99299997
-0.33563057 -0.24563931 0.99299997
-0.33345786 -0.24539194 0.99199998
-0.33128884 -0.24514458 0.991
-0.32879111 -0.24464984 0.98900002
-0.32630074 -0.24415509 0.98699999
-0.32414654 -0.24390772 0.986
-0.32264984 -0.24415509 0.98699999
-0.32082438 -0.24415509 0.98699999
-0.3189989 -0.24415509 0.98699999
-0.31749481 -0.24440245 0.98799998
-0.31566748 -0.24440245 0.98799998
-0.31352255 -0.24415509 0.98699999
-0.31169707 -0.24415509 0.98699999
-0.30987161 -0.24415509 0.98699999
-0.30804616 -0.24415509 0.98699999
-0.30653095 -0.24440245 0.98799998
-0.30470365 -0.24440245 0.98799998
-0.30226323 -0.24390772 0.986
-0.30013493 -0.24366036 0.98500001
-0.29801032 -0.24341299 0.98400003
-0.29619041 -0.24341299 0.98400003
-0.29466963 -0.24366036 0.98500001
-0.29255059 -0.24341299 0.98400003
-0.29073066 -0.24341299 0.98400003
-0.28920436 -0.24366036 0.98500001
-0.2873826 -0.24366036 0.98500001
-0.28585076 -0.24390772 0.986
-0.28402713 -0.24390772 0.986
-0.28220353 -0.24390772 0.986
-0.28009558 -0.24366036 0.98500001
-0.27799129 -0.24341299 0.98400003
-0.27645203 -0.24366036 0.98500001
-0.27463028 -0.24366036 0.98500001
-0.27280852 -0.24366036 0.98500001
-0.27098677 -0.24366036 0.98500001
-0.26889175 -0.24341299 0.98400003
-0.26707184 -0.24341299 0.98400003
-0.26525193 -0.24341299 0.98400003
-0.26369974 -0.24366036 0.98500001
-0.26187795 -0.24366036 0.98500001
-0.2600562 -0.24366036 0.98500001
-0.25797227 -0.24341299 0.98400003
-0.25641268 -0.24366036 0.98500001
-0.25459093 -0.24366036 0.98500001
-0.25276917 -0.24366036 0.98500001
-0.25069264 -0.24341299 0.98400003
-0.24887273 -0.24341299 0.98400003
-0.24680173 -0.2431656 0.98299998
-0.24473445 -0.24291824 0.98199999
-0.24291824 -0.24291824 0.98199999
-0.24110202 -0.24291824 0.98199999
-0.23928581 -0.24291824 0.98199999
-0.2374696 -0.24291824 0.98199999
-0.23565339 -0.24291824 0.98199999
-0.23407529 -0.2431656 0.98299998
-0.23225725 -0.2431656 0.98299998
-0.23043919 -0.2431656 0.98299998
-0.22862113 -0.2431656 0.98299998
-0.22680306 -0.2431656 0.98299998
-0.224985 -0.2431656 0.98299998
-0.22293992 -0.24291824 0.98199999
-0.22112371 -0.24291824 0.98199999
-0.2193075 -0.24291824 0.98199999
-0.21726982 -0.24267086 0.98100001
-0.21567509 -0.24291824 0.98199999
-0.21385887 -0.24291824 0.98199999
-0.21204266 -0.24291824 0.98199999
-0.21022645 -0.24291824 0.98199999
-0.20819801 -0.24267086 0.98100001
-0.20638365 -0.24267086 0.98100001
-0.20436075 -0.2424235 0.98000002
-0.20234156 -0.24217612 0.97899997
-0.20053089 -0.24217612 0.97899997
-0.19872023 -0.24217612 0.97899997
-0.19670843 -0.24192876 0.97799999
-0.19470035 -0.24168138 0.977
-0.19309081 -0.24192876 0.97799999
-0.19128199 -0.24192876 0.97799999
-0.18966691 -0.24217612 0.97899997
-0.18804814 -0.2424235 0.98000002
-0.18623564 -0.2424235 0.98000002
-0.18423493 -0.24217612 0.97899997
-0.18223792 -0.24192876 0.97799999
-0.18024462 -0.24168138 0.977
-0.17825502 -0.24143401 0.97600001
-0.17644991 -0.24143401 0.97600001
-0.1746448 -0.24143401 0.97600001
-0.17283969 -0.24143401 0.97600001
-0.17103457 -0.24143401 0.97600001
-0.16905607 -0.24118665 0.97500002
-0.16725281 -0.24118665 0.97500002
-0.16544954 -0.24118665 0.97500002
-0.16364628 -0.24118665 0.97500002
-0.16184302 -0.24118665 0.97500002
-0.16003974 -0.24118665 0.97500002
-0.15823647 -0.24118665 0.97500002
-0.15643321 -0.24118665 0.97500002
-0.15462995 -0.24118665 0.97500002
-0.15282668 -0.24118665 0.97500002
-0.15102342 -0.24118665 0.97500002
-0.14922015 -0.24118665 0.97500002
-0.14741689 -0.24118665 0.97500002
-0.14576297 -0.24143401 0.97600001
-0.14410536 -0.24168138 0.977
-0.14244403 -0.24192876 0.97799999
-0.14063522 -0.24192876 0.97799999
-0.13868447 -0.24168138 0.977
-0.13687749 -0.24168138 0.977
-0.13493228 -0.24143401 0.97600001
-0.13312717 -0.24143401 0.97600001
-0.13145661 -0.24168138 0.977
-0.13004775 -0.2424235 0.98000002
-0.12902035 -0.24390772 0.986
-0.12758376 -0.24464984 0.98900002
-0.12664466 -0.24638143 0.99599999
-0.10713704 -0.24390772 0.986
-0.1048862 -0.24291824 0.98199999
-0.10286006 -0.2424235 0.98000002
-0.10063511 -0.24143401 0.97600001
-0.098728739 -0.24118665 0.97500002
-0.096925475 -0.24118665 0.97500002
-0.095024645 -0.24093926 0.97399998
-0.093127519 -0.2406919 0.97299999
-0.091327958 -0.2406919 0.97299999
-0.089344367 -0.24019717 0.97100002
-0.087548502 -0.24019717 0.97100002
-0.085752629 -0.24019717 0.97100002
-0.083956763 -0.24019717 0.97100002
-0.082160898 -0.24019717 0.97100002
-0.080365032 -0.24019717 0.97100002
-0.078569166 -0.24019717 0.97100002
-0.076852366 -0.24044453 0.972
-0.075054646 -0.24044453 0.972
-0.073332295 -0.2406919 0.97299999
-0.071459211 -0.24044453 0.972
-0.069661498 -0.24044453 0.972
-0.067793965 -0.24019717 0.97100002
-0.0659981 -0.24019717 0.97100002
-0.064268351 -0.24044453 0.972
-0.062470634 -0.24044453 0.972
-0.060735341 -0.2406919 0.97299999
-0.058875203 -0.24044453 0.972
-0.057077486 -0.24044453 0.972
-0.055222899 -0.24019717 0.97100002
-0.053372011 -0.23994979 0.97000003
-0.051577993 -0.23994979 0.97000003
-0.049732652 -0.2397024 0.96899998
-0.047940481 -0.2397024 0.96899998
-0.046148315 -0.2397024 0.96899998
-0.044356149 -0.2397024 0.96899998
-0.042520054 -0.23945504 0.96799999
-0.040729735 -0.23945504 0.96799999
-0.038899191 -0.23920767 0.96700001
-0.037110724 -0.23920767 0.96700001
-0.035322253 -0.23920767 0.96700001
-0.033533785 -0.23920767 0.96700001
-0.031745318 -0.23920767 0.96700001
-0.029925872 -0.23896031 0.96600002
-0.02811012 -0.23871292 0.96499997
-0.026325351 -0.23871292 0.96499997
-0.024515152 -0.23846556 0.96399999
-0.022732232 -0.23846556 0.96399999
-0.020949312 -0.23846556 0.96399999
-0.019186273 -0.23871292 0.96499997
-0.017401503 -0.23871292 0.96499997
-0.015616733 -0.23871292 0.96499997
-0.013846299 -0.23896031 0.96600002
-0.012047195 -0.23871292 0.96499997
-0.01027306 -0.23896031 0.96600002
-0.0084864404 -0.23896031 0.96600002
-0.0066998219 -0.23896031 0.96600002
-0.0049182884 -0.23920767 0.96700001
-0.0031330567 -0.23945504 0.96799999
-0.0013427385 -0.23945504 0.96799999
0.00044757954 -0.23945504 0.96799999
0.0022378976 -0.23945504 0.96799999
0.0040282155 -0.23945504 0.96799999
0.005812523 -0.23920767 0.96700001
0.0075931312 -0.23896031 0.96600002
0.0093797501 -0.23896031 0.96600002
0.01114325 -0.23846556 0.96399999
0.012926171 -0.23846556 0.96399999
0.014709091 -0.23846556 0.96399999
0.016492011 -0.23846556 0.96399999
0.018274931 -0.23846556 0.96399999
0.020057851 -0.23846556 0.96399999
0.021840772 -0.23846556 0.96399999
0.023599185 -0.23821819 0.963
0.025380256 -0.23821819 0.963
0.027161326 -0.23821819 0.963
0.028942397 -0.23821819 0.963
0.030723467 -0.23821819 0.963
0.032504536 -0.23821819 0.963
0.034321211 -0.23846556 0.96399999
0.036141582 -0.23871292 0.96499997
0.037926354 -0.23871292 0.96499997
0.039669972 -0.23846556 0.96399999
0.041409891 -0.23821819 0.963
0.043146111 -0.23797083 0.96200001
0.044878636 -0.23772345 0.96100003
0.046656005 -0.23772345 0.96100003
0.048433378 -0.23772345 0.96100003
0.050262999 -0.23797083 0.96200001
0.052096315 -0.23821819 0.963
0.053877387 -0.23821819 0.963
0.055658456 -0.23821819 0.963
0.057439528 -0.23821819 0.963
0.059220597 -0.23821819 0.963
0.061001666 -0.23821819 0.963
0.062782735 -0.23821819 0.963
0.064563803 -0.23821819 0.963
0.06634488 -0.23821819 0.963
0.068125948 -0.23821819 0.963
0.069834426 -0.23797083 0.96200001
0.071613647 -0.23797083 0.96200001
0.073392868 -0.23797083 0.96200001
0.075172089 -0.23797083 0.96200001
0.07695131 -0.23797083 0.96200001
0.078648694 -0.23772345 0.96100003
0.080426067 -0.23772345 0.96100003
0.08220344 -0.23772345 0.96100003
0.083980806 -0.23772345 0.96100003
0.085758179 -0.23772345 0.96100003
0.087535553 -0.23772345 0.96100003
0.08921998 -0.23747607 0.95999998
0.090995505 -0.23747607 0.95999998
0.092771031 -0.23747607 0.95999998
0.094645038 -0.23772345 0.96100003
0.096422412 -0.23772345 0.96100003
0.098097593 -0.23747607 0.95999998
0.099873118 -0.23747607 0.95999998
0.10143688 -0.23698133 0.958
0.1032087 -0.23698133 0.958
0.10498052 -0.23698133 0.958
0.10686377 -0.23722871 0.95899999
0.10863744 -0.23722871 0.95899999
0.11052625 -0.23747607 0.95999998
0.11218479 -0.23722871 0.95899999
0.11383963 -0.23698133 0.958
0.11549078 -0.23673397 0.95700002
0.11713822 -0.23648658 0.95599997
0.11878197 -0.23623922 0.95499998
0.12054824 -0.23623922 0.95499998
0.12218644 -0.23599185 0.954
0.12395086 -0.23599185 0.954
0.12571529 -0.23599185 0.954
0.12747972 -0.23599185 0.954
0.12937962 -0.23623922 0.95499998
0.13114589 -0.23623922 0.95499998
0.13291216 -0.23623922 0.95499998
0.13453741 -0.23599185 0.954
0.13615897 -0.23574448 0.95300001
0.13792154 -0.23574448 0.95300001
0.13968413 -0.23574448 0.95300001
0.14144669 -0.23574448 0.95300001
0.143059 -0.23549712 0.95200002
0.1446676 -0.23524973 0.95099998
0.14627251 -0.23500237 0.94999999
0.14802954 -0.23500237 0.94999999
0.14978656 -0.23500237 0.94999999
0.15154359 -0.23500237 0.94999999
0.15330061 -0.23500237 0.94999999
0.15489443 -0.23475499 0.949
0.1566496 -0.23475499 0.949
0.15840478 -0.23475499 0.949
0.16015996 -0.23475499 0.949
0.16191514 -0.23475499 0.949
0.16384278 -0.23500237 0.94999999
0.16542549 -0.23475499 0.949
0.16718067 -0.23475499 0.949
0.16893585 -0.23475499 0.949
0.17069103 -0.23475499 0.949
0.17226449 -0.23450764 0.94800001
0.17383426 -0.23426026 0.94700003
0.17540032 -0.23401287 0.94599998
0.17696269 -0.23376551 0.94499999
0.17871046 -0.23376551 0.94499999
0.18064921 -0.23401287 0.94599998
0.18239883 -0.23401287 0.94599998
0.18414846 -0.23401287 0.94599998
0.1858981 -0.23401287 0.94599998
0.18744937 -0.23376551 0.94499999
0.18879673 -0.23327078 0.94300002
0.19074287 -0.23351814 0.94400001
0.1922849 -0.23327078 0.94300002
0.19423473 -0.23351814 0.94400001
0.19618826 -0.23376551 0.94499999
0.19814549 -0.23401287 0.94599998
0.19968382 -0.23376551 0.94499999
0.2014316 -0.23376551 0.94499999
0.20317937 -0.23376551 0.94499999
0.2047103 -0.23351814 0.94400001
0.20645624 -0.23351814 0.94400001
0.20820217 -0.23351814 0.94400001
0.20994811 -0.23351814 0.94400001
0.21191828 -0.23376551 0.94499999
0.21343996 -0.23351814 0.94400001
0.2151859 -0.23351814 0.94400001
0.21693182 -0.23351814 0.94400001
0.21867774 -0.23351814 0.94400001
0.22019018 -0.23327078 0.94300002
0.22169891 -0.23302339 0.94199997
0.22344112 -0.23302339 0.94199997
0.22494431 -0.23277603 0.94099998
0.22692558 -0.23302339 0.94199997
0.22891058 -0.23327078 0.94300002
0.23187764 -0.23450764 0.94800001
0.23363097 -0.23450764 0.94800001
-0.37423658 -0.24503037 0.99800003
-0.37015197 -0.24355723 0.99199998
-0.36757469 -0.24306621 0.99000001
-0.36574367 -0.24306621 0.99000001
-0.36391267 -0.24306621 0.99000001
-0.36244738 -0.24331172 0.991
-0.36097842 -0.24355723 0.99199998
-0.3591437 -0.24355723 0.99199998
-0.35694882 -0.24331172 0.991
-0.35475764 -0.24306621 0.99000001
-0.35292661 -0.24306621 0.99000001
-0.35038635 -0.24257515 0.98799998
-0.34785345 -0.24208412 0.986
-0.34602985 -0.24208412 0.986
-0.34385717 -0.24183859 0.98500001
-0.34238264 -0.24208412 0.986
-0.34055904 -0.24208412 0.986
-0.33942249 -0.24257515 0.98799998
-0.33862028 -0.24331172 0.991
-0.33678743 -0.24331172 0.991
-0.33529258 -0.24355723 0.99199998
-0.33312172 -0.24331172 0.991
-0.33095455 -0.24306621 0.99000001
-0.32845864 -0.24257515 0.98799998
-0.32597014 -0.24208412 0.986
-0.32381779 -0.24183859 0.98500001
-0.32232293 -0.24208412 0.986
-0.32049933 -0.24208412 0.986
-0.31867573 -0.24208412 0.986
-0.31717345 -0.24232963 0.98699999
-0.315348 -0.24232963 0.98699999
-0.31352255 -0.24232963 0.98699999
-0.31169707 -0.24232963 0.98699999
-0.30955768 -0.24208412 0.986
-0.30804616 -0.24232963 0.98699999
-0.30653095 -0.24257515 0.98799998
-0.30439523 -0.24232963 0.98699999
-0.30226323 -0.24208412 0.986
-0.30013493 -0.24183859 0.98500001
-0.29801032 -0.24159308 0.98400003
-0.29619041 -0.24159308 0.98400003
-0.29466963 -0.24183859 0.98500001
-0.29284787 -0.24183859 0.98500001
-0.29102612 -0.24183859 0.98500001
-0.28949797 -0.24208412 0.986
-0.28767437 -0.24208412 0.986
-0.28614065 -0.24232963 0.98699999
-0.28402713 -0.24208412 0.986
-0.28220353 -0.24208412 0.986
-0.2798112 -0.24159308 0.98400003
-0.27770877 -0.24134754 0.98299998
-0.27617139 -0.24159308 0.98400003
-0.27435148 -0.24159308 0.98400003
-0.27253157 -0.24159308 0.98400003
-0.27098677 -0.24183859 0.98500001
-0.26916501 -0.24183859 0.98500001
-0.26707184 -0.24159308 0.98400003
-0.26525193 -0.24159308 0.98400003
-0.26343203 -0.24159308 0.98400003
-0.26161212 -0.24159308 0.98400003
-0.25979218 -0.24159308 0.98400003
-0.25797227 -0.24159308 0.98400003
-0.25615236 -0.24159308 0.98400003
-0.25433245 -0.24159308 0.98400003
-0.25251254 -0.24159308 0.98400003
-0.25069264 -0.24159308 0.98400003
-0.24861979 -0.24134754 0.98299998
-0.24680173 -0.24134754 0.98299998
-0.24473445 -0.24110202 0.98199999
-0.24267086 -0.24085651 0.98100001
-0.24085651 -0.24085651 0.98100001
-0.23904215 -0.24085651 0.98100001
-0.2374696 -0.24110202 0.98199999
-0.23565339 -0.24110202 0.98199999
-0.23383717 -0.24110202 0.98199999
-0.23225725 -0.24134754 0.98299998
-0.23020478 -0.24110202 0.98199999
-0.22838856 -0.24110202 0.98199999
-0.22657235 -0.24110202 0.98199999
-0.22452727 -0.24085651 0.98100001
-0.2227129 -0.24085651 0.98100001
-0.22089854 -0.24085651 0.98100001
-0.21908417 -0.24085651 0.98100001
-0.21726982 -0.24085651 0.98100001
-0.21545546 -0.24085651 0.98100001
-0.21364109 -0.24085651 0.98100001
-0.21204266 -0.24110202 0.98199999
-0.21022645 -0.24110202 0.98199999
-0.20819801 -0.24085651 0.98100001
-0.20617327 -0.24061099 0.98000002
-0.20415221 -0.24036546 0.97899997
-0.20234156 -0.24036546 0.97899997
-0.20032606 -0.24011993 0.97799999
-0.19851725 -0.24011993 0.97799999
-0.1965073 -0.23987442 0.977
-0.19470035 -0.23987442 0.977
-0.19309081 -0.24011993 0.97799999
-0.19128199 -0.24011993 0.97799999
-0.18947318 -0.24011993 0.97799999
-0.18785626 -0.24036546 0.97899997
-0.18604559 -0.24036546 0.97899997
-0.18404675 -0.24011993 0.97799999
-0.18223792 -0.24011993 0.97799999
-0.18024462 -0.23987442 0.977
-0.17825502 -0.2396289 0.97600001
-0.17644991 -0.2396289 0.97600001
-0.17446586 -0.23938338 0.97500002
-0.1726626 -0.23938338 0.97500002
-0.17085934 -0.23938338 0.97500002
-0.16888267 -0.23913784 0.97399998
-0.16708125 -0.23913784 0.97399998
-0.16527984 -0.23913784 0.97399998
-0.16347842 -0.23913784 0.97399998
-0.161677 -0.23913784 0.97399998
-0.15987559 -0.23913784 0.97399998
-0.15823647 -0.23938338 0.97500002
-0.15643321 -0.23938338 0.97500002
-0.15462995 -0.23938338 0.97500002
-0.15266994 -0.23913784 0.97399998
-0.15086852 -0.23913784 0.97399998
-0.1490671 -0.23913784 0.97399998
-0.14741689 -0.23938338 0.97500002
-0.14576297 -0.2396289 0.97600001
-0.14410536 -0.23987442 0.977
-0.14244403 -0.24011993 0.97799999
-0.14063522 -0.24011993 0.97799999
-0.13868447 -0.23987442 0.977
-0.13687749 -0.23987442 0.977
-0.13493228 -0.2396289 0.97600001
-0.13299078 -0.23938338 0.97500002
-0.13132206 -0.2396289 0.97600001
-0.12978235 -0.24011993 0.97799999
-0.12862779 -0.24134754 0.98299998
-0.12719674 -0.24208412 0.986
-0.1262632 -0.24380276 0.99299997
-0.12517847 -0.2452759 0.99900001
-0.10713704 -0.24208412 0.986
-0.10477939 -0.24085651 0.98100001
-0.1027551 -0.24036546 0.97899997
-0.10063511 -0.2396289 0.97600001
-0.098627478 -0.23913784 0.97399998
-0.096925475 -0.23938338 0.97500002
-0.094927087 -0.23889233 0.97299999
-0.093031809 -0.23864681 0.972
-0.091234095 -0.23864681 0.972
-0.089344367 -0.23840129 0.97100002
-0.087458335 -0.23815578 0.97000003
-0.085664317 -0.23815578 0.97000003
-0.083870299 -0.23815578 0.97000003
-0.082160898 -0.23840129 0.97100002
-0.080365032 -0.23840129 0.97100002
-0.078569166 -0.23840129 0.97100002
-0.076773301 -0.23840129 0.97100002
-0.075054646 -0.23864681 0.972
-0.073256932 -0.23864681 0.972
-0.071459211 -0.23864681 0.972
-0.069589831 -0.23840129 0.97100002
-0.067793965 -0.23840129 0.97100002
-0.065930128 -0.23815578 0.97000003
-0.06413611 -0.23815578 0.97000003
-0.062406365 -0.23840129 0.97100002
-0.06067292 -0.23864681 0.972
-0.058875203 -0.23864681 0.972
-0.057077486 -0.23864681 0.972
-0.055222899 -0.23840129 0.97100002
-0.053316984 -0.23791024 0.96899998
-0.051524818 -0.23791024 0.96899998
-0.049681328 -0.23766473 0.96799999
