# .PCD v0.7 - Point Cloud Data file format
VERSION 0.7
FIELDS x y z
SIZE 4 4 4
TYPE F F F
COUNT 1 1 1
WIDTH 1527
HEIGHT 1
VIEWPOINT 0 0 0 1 0 0 0
POINTS 1527
DATA ascii
0.61495405 0.044755675 1.0341852
0.62591964 0.042865597 1.0309999
0.63483697 0.040480979 1.03
0.64581072 0.042061288 1.0314
0.65510613 0.042435195 1.0312308
0.66420633 0.044806667 1.0319091
0.53853762 0.056207761 1.039
0.54142004 0.058129393 1.039
0.55558401 0.053756114 1.03768
0.56541419 0.054550093 1.0354412
0.57491952 0.055431277 1.0331212
0.58494985 0.055209991 1.0332143
0.59482825 0.055188045 1.0343
0.60549015 0.054876097 1.0352941
0.61538458 0.055094425 1.0340313
0.62210292 0.053931363 1.0322667
0.65770119 0.053258032 1.0315
0.66604125 0.054178666 1.0334195
0.70633173 0.05462566 1.0333333
0.53881788 0.066187955 1.0388
0.54128277 0.063345253 1.039
0.55979556 0.062284302 1.0378001
0.5651632 0.066006936 1.0364074
0.57515991 0.065394513 1.0357407
0.58501202 0.065581694 1.0342414
0.59492594 0.065065078 1.0329616
0.60535067 0.065655157 1.0340768
0.61490333 0.065111734 1.0321786
0.62238044 0.064812258 1.0306666
0.6468941 0.06816972 1.031
0.65833181 0.067150794 1.03
0.66375244 0.06759543 1.0331249
0.6983366 0.067785792 1.03
0.70202148 0.068629816 1.03075
0.51723349 0.077320494 1.0386666
0.52467597 0.076849453 1.0384117
0.53550738 0.076809712 1.03825
0.54142004 0.075904496 1.039
0.55884641 0.076088749 1.0371667
0.56459683 0.074938282 1.0343462
0.57569355 0.075022548 1.0352758
0.58509976 0.075418182 1.036
0.59411204 0.075327985 1.03575
0.60625714 0.075563639 1.0358845
0.61252445 0.075339057 1.0320001
0.62177962 0.072476551 1.03125
0.64705741 0.071471468 1.0304999
0.65769684 0.070960768 1.03
0.66379595 0.075428717 1.0321579
0.70701575 0.077074356 1.032125
0.50971311 0.087914705 1.039
0.51299995 0.087454572 1.0384287
0.52532864 0.084476165 1.0384667
0.53590578 0.08604838 1.0387692
0.54698467 0.087767303 1.0359999
0.55487818 0.084702238 1.0332593
0.56510794 0.084730521 1.0342607
0.57530087 0.084880508 1.0371429
0.58497727 0.084948078 1.0355862
0.59582019 0.0843587 1.03636
0.60454595 0.084569782 1.0341853
0.6134159 0.084971063 1.0331304
0.63831365 0.088191204 1.031
0.6468944 0.086761996 1.031
0.65218771 0.086355954 1.0318333
0.66405541 0.081040092 1.0309999
0.70173794 0.080511756 1.0303333
0.47824964 0.093024187 1.0388334
0.48088863 0.094640411 1.039
0.49337924 0.098483682 1.039
0.50971311 0.090797149 1.039
0.51295227 0.092610739 1.0377778
0.52775395 0.092264175 1.0382
0.53543824 0.093800493 1.0384705
0.54482734 0.094270155 1.0371035
0.55576259 0.094601661 1.0362222
0.56520015 0.095094927 1.0349334
0.57613027 0.094510078 1.0318636
0.5851 0.094549842 1.0323462
0.5959906 0.095443875 1.0355518
0.60511446 0.095032588 1.0343214
0.6141023 0.095130898 1.0329679
0.62245458 0.099535584 1.03
0.63758367 0.090674765 1.0303333
0.64451927 0.092889979 1.03025
0.65400976 0.092911497 1.0326
0.66501474 0.097592488 1.0316
0.68722415 0.090010643 1.03
0.49434006 0.10040531 1.039
0.50586987 0.10424858 1.039
0.52582127 0.10509452 1.0387272
0.53602421 0.10323229 1.0366818
0.54487735 0.10340721 1.0366316
0.55544978 0.10477268 1.0347222
0.56444502 0.10471571 1.031
0.57464713 0.10638027 1.0311766
0.58547068 0.10469342 1.0347879
0.59512681 0.1047342 1.0315
0.60374093 0.1028398 1.0323889
0.61673957 0.1038218 1.0299999
0.62474948 0.10568804 1.0316191
0.63769448 0.10620303 1.03
0.64308977 0.10630839 1.0301818
0.65661126 0.10456471 1.0312856
0.6663515 0.10512655 1.0350665
0.67160243 0.10733362 1.0317143
0.47608453 0.11577838 1.039
0.52316457 0.11001348 1.039
0.53916043 0.11615547 1.0385556
0.5451194 0.11710715 1.0377645
0.5548268 0.11514373 1.0327812
0.5641793 0.11494866 1.0299999
0.57539111 0.11495181 1.033
0.58515972 0.11472473 1.0341818
0.59214854 0.11686805 1.0331818
0.60664362 0.11614901 1.0309166
0.61066449 0.11584033 1.031
0.62622088 0.11478675 1.0309999
0.63075364 0.11524637 1.0308
0.64753407 0.11769006 1.0305001
0.65325189 0.11541047 1.03
0.6646859 0.11101937 1.0305001
0.47896701 0.12154328 1.039
0.48088863 0.12154328 1.039
0.50565636 0.12517303 1.039
0.51721627 0.1250347 1.038357
0.52352333 0.12537873 1.0381052
0.53679121 0.12592272 1.0372778
0.54558301 0.12505522 1.0362759
0.55512846 0.12463193 1.0327419
0.56503469 0.12559035 1.0308124
0.57540572 0.12470374 1.0319999
0.58453542 0.12510668 1.03475
0.59232134 0.12474278 1.0326874
0.61769211 0.12144293 1.03
0.62544149 0.12298995 1.0310001
0.65007687 0.12049044 1.03
0.45259708 0.13498154 1.0389
0.49337924 0.13883798 1.039
0.50844133 0.13556615 1.0378749
0.51489151 0.13532004 1.0379999
0.52507591 0.13344401 1.0385556
0.5369125 0.13385814 1.0371765
0.54498214 0.13481075 1.0363333
0.55482519 0.1346105 1.0332701
0.56424487 0.13554706 1.0312272
0.57502037 0.13642012 1.0312726
0.58574373 0.13449557 1.0324546
0.59130841 0.1365432 1.0313332
0.636742 0.13001537 1.03
0.48665354 0.14748532 1.039
0.493242 0.14185768 1.039
0.50690043 0.14523648 1.0364
0.51505208 0.14522694 1.0358518
0.52496201 0.14499536 1.0359427
0.53516906 0.14472459 1.0363333
0.54565537 0.14482591 1.035875
0.55458403 0.14490481 1.0324545
0.56502789 0.1449348 1.03225
0.57488018 0.14365898 1.0313751
0.58553058 0.14493063 1.0328125
0.59144014 0.14506468 1.0314
0.60816717 0.14525528 1.03
0.61046702 0.14534928 1.0306667
0.46615991 0.15618716 1.0385624
0.47128046 0.15421104 1.039
0.50402778 0.15514837 1.0359395
0.51452643 0.15511295 1.0351539
0.52419496 0.15530448 1.0372353
0.53608477 0.15480953 1.0375791
0.54534388 0.1551562 1.0366485
0.55406588 0.15505612 1.0318332
0.56422794 0.1551038 1.0321428
0.57455927 0.15509135 1.0309091
0.58474505 0.15578111 1.0314546
0.59320873 0.15449046 1.0309999
0.46800286 0.1670215 1.0384285
0.47153407 0.16758224 1.0385001
0.48761433 0.1695841 1.039
0.49049678 0.1695841 1.039
0.50550628 0.16519102 1.037182
0.5150038 0.16546577 1.0364482
0.52482504 0.16520549 1.0361738
0.5351246 0.16573444 1.0365599
0.54523259 0.16548909 1.0374168
0.5547182 0.16516626 1.0350313
0.56462973 0.16459572 1.0333912
0.57704449 0.16404463 1.0316364
0.58586127 0.16471235 1.0344799
0.63621187 0.16513734 1.0317856
0.64250439 0.16726448 1.0331428
0.46487498 0.17855173 1.039
0.48648256 0.17544071 1.038125
0.49372602 0.17687437 1.0382856
0.50534987 0.17498608 1.0364482
0.51481062 0.17464302 1.0353043
0.52506113 0.17601094 1.0380476
0.53470224 0.17518535 1.0349697
0.54561979 0.1749731 1.0356667
0.55404437 0.17541359 1.0317143
0.56357718 0.17434473 1.0309049
0.58351791 0.17179038 1.0306251
0.63702399 0.17433329 1.0309999
0.64169121 0.17286366 1.0318333
0.46504593 0.18265684 1.0386667
0.4877843 0.18222035 1.038
0.49402222 0.18206505 1.0383334
0.50676543 0.18590993 1.0377777
0.51466119 0.18506294 1.0359062
0.52505249 0.18419935 1.035148
0.53370243 0.18496051 1.0327241
0.54500216 0.18517236 1.0331725
0.55456895 0.185359 1.0315806
0.56176728 0.18534882 1.0304999
0.57405668 0.18801682 1.03075
0.59864223 0.18621251 1.03
0.44970924 0.19725773 1.038
0.45519218 0.19621286 1.0381874
0.46743768 0.19827427 1.0372999
0.47440076 0.19714588 1.0374166
0.49838877 0.19761297 1.0377142
0.50477266 0.19504033 1.0362725
0.51474416 0.19602785 1.0353601
0.52483833 0.19474517 1.0360587
0.5356251 0.19610325 1.0358928
0.54363298 0.19480219 1.0318695
0.55553228 0.19560768 1.0330834
0.56439531 0.19464158 1.0324546
0.57342333 0.19436206 1.0321875
0.58377868 0.19872348 1.0306666
0.59578478 0.19859493 1.03
0.60813379 0.19635692 1.03075
0.61350232 0.19736624 1.0308181
0.445409 0.2076015 1.0369333
0.45228678 0.20518664 1.0381539
0.46679363 0.20359433 1.0379999
0.47449955 0.20212209 1.0383334
0.49574128 0.2058749 1.0370436
0.50462455 0.20558769 1.03644
0.51477075 0.20508814 1.0348125
0.52546787 0.20561373 1.0353044
0.53557664 0.20536087 1.0368401
0.54395318 0.20472683 1.0332401
0.55496818 0.20418869 1.031
0.56534696 0.2063099 1.0322499
0.57357705 0.20477793 1.0302222
0.58535022 0.20417884 1.0307143
0.61483461 0.20049991 1.03
0.4460052 0.21502747 1.0366191
0.45506072 0.2154602 1.0378261
0.46527895 0.21514396 1.0379131
0.47652367 0.21641833 1.0383333
0.48456314 0.2170811 1.038125
0.49550122 0.21586847 1.0368638
0.50471365 0.21480729 1.035
0.51533651 0.2154281 1.0372381
0.52509987 0.21531397 1.0371333
0.53471017 0.21574776 1.037263
0.54594535 0.2152866 1.0346129
0.55536729 0.21336955 1.0306817
0.56511855 0.21507551 1.0314001
0.59409207 0.21660458 1.0308181
0.44616646 0.22529848 1.0384443
0.45449391 0.22508764 1.0383333
0.46491042 0.22501987 1.0376521
0.473113 0.2232461 1.0383334
0.4862332 0.22434668 1.0373635
0.49429876 0.22474812 1.0344446
0.50449431 0.22477861 1.0332164
0.51528043 0.22488648 1.0347391
0.52395862 0.22488576 1.0333549
0.53584868 0.22490694 1.0356666
0.54328758 0.22479022 1.0322084
0.55645788 0.2271588 1.0306667
0.56536216 0.22464657 1.0322105
0.5703941 0.22583987 1.0311666
0.58663982 0.22454177 1.0304285
0.44721505 0.23434572 1.0380626
0.45205665 0.23548162 1.0381
0.48417366 0.23993166 1.03575
0.49506384 0.23214328 1.0368999
0.50448525 0.23524044 1.0339999
0.51484972 0.2346538 1.0325624
0.52455699 0.23550706 1.0331364
0.53551555 0.23517244 1.0352855
0.54282981 0.23494132 1.0311874
0.5555445 0.23507479 1.0317223
0.56542873 0.23560199 1.0356001
0.5716095 0.23471029 1.0343333
0.65388685 0.23097971 1.03
0.44597453 0.24637087 1.0361924
0.45387301 0.24552974 1.036857
0.46730235 0.24496277 1.0381333
0.47579077 0.24512509 1.0374643
0.48448855 0.24524872 1.0330714
0.49476504 0.24542589 1.0347084
0.50448507 0.24469779 1.0333571
0.514467 0.24506076 1.0322592
0.52566522 0.24541387 1.0356957
0.5342617 0.24517663 1.0327929
0.54320085 0.24559799 1.0304614
0.55673254 0.24431461 1.03
0.56307381 0.24395697 1.0300999
0.44514275 0.25504902 1.0370001
0.45420486 0.2552436 1.038125
0.46568397 0.25574487 1.0374166
0.47485945 0.25480419 1.0365937
0.4844119 0.25470611 1.0332668
0.49507704 0.25470361 1.0341201
0.50515789 0.25501689 1.0344815
0.51434481 0.25415614 1.0315518
0.52470756 0.25476736 1.0326666
0.53508514 0.25483319 1.0326765
0.54579079 0.25471416 1.0328096
0.55085504 0.25380763 1.0322
0.56429905 0.25514302 1.0301331
0.57436055 0.25716043 1.0305833
0.58015513 0.25980651 1.031
0.59532619 0.25767708 1.0310625
0.60149968 0.25955451 1.03
0.41939637 0.26470494 1.039
0.43767557 0.26786795 1.0386001
0.44610333 0.26610678 1.0381
0.45495084 0.26551315 1.038409
0.46543646 0.26458788 1.0353216
0.4757233 0.2649276 1.0361198
0.48456377 0.264148 1.0333334
0.49516931 0.26456979 1.0347084
0.50507849 0.26559409 1.0344999
0.51425064 0.2653791 1.0328215
0.52688342 0.26442721 1.0315
0.53500211 0.26452345 1.0328001
0.54518455 0.26452357 1.0317779
0.55461586 0.26605567 1.0311999
0.5643186 0.26536664 1.0303749
0.57489669 0.26406795 1.0310384
0.58015513 0.26171336 1.031
0.59635627 0.26184049 1.03
0.60245222 0.2614595 1.03
0.41811529 0.27847663 1.039
0.42420045 0.27911717 1.039
0.43645152 0.27590159 1.03775
0.44518483 0.27554163 1.0364062
0.45467758 0.27539492 1.0365185
0.46543881 0.27500537 1.0360383
0.4755778 0.27442792 1.0358
0.48494628 0.27487656 1.0341333
0.49511039 0.27473697 1.0354826
0.5045616 0.27519631 1.0331539
0.51536852 0.27559391 1.033
0.52466512 0.27613819 1.0311364
0.53355849 0.27435574 1.0304999
0.54543513 0.27445975 1.0306314
0.55507982 0.27402323 1.0306873
0.56312805 0.27179512 1.0306667
0.60054719 0.27288941 1.03
0.41939637 0.28199962 1.039
0.42518246 0.28419724 1.0384089
0.43514803 0.28436455 1.038107
0.44458544 0.28577125 1.0361248
0.45444575 0.28508306 1.0354782
0.46466553 0.28508577 1.0359393
0.47538868 0.28481793 1.036742
0.48484635 0.28546253 1.0351429
0.49458149 0.28527269 1.03484
0.50450611 0.28464308 1.0332432
0.51550496 0.285225 1.0332727
0.52271211 0.28405198 1.0311
0.54503047 0.28214219 1.0299999
0.56549543 0.28584331 1.03
0.41566962 0.29688233 1.0378823
0.42452881 0.29438254 1.038625
0.43537045 0.29435831 1.0366969
0.44530377 0.29497361 1.0349288
0.45496008 0.29466969 1.036
0.46444961 0.2945264 1.0360456
0.47497749 0.29528499 1.0355359
0.48489723 0.2948035 1.0340335
0.49546051 0.29532444 1.0341201
0.50443566 0.29491389 1.0321379
0.51502246 0.29473463 1.0333704
0.52324635 0.29601145 1.0318571
0.53187788 0.29787099 1.03075
0.54601878 0.29527318 1.0302939
0.40644506 0.30729383 1.0384376
0.41552916 0.30564433 1.0385416
0.42190173 0.30625069 1.0383334
0.43754876 0.30124536 1.038
0.44497326 0.30464604 1.0355771
0.45507768 0.30487034 1.0353332
0.46556565 0.30485514 1.035724
0.4741613 0.30417138 1.0327202
0.48476702 0.30462191 1.0345002
0.49424866 0.3048532 1.032485
0.50456923 0.30544183 1.0317143
0.51462007 0.30545756 1.0337199
0.5241943 0.30476364 1.0341517
0.53347844 0.30390143 1.0307894
0.56776065 0.30938426 1.031
0.57006741 0.30908418 1.03
0.36430955 0.31819037 1.039
0.40602568 0.31491578 1.0380909
0.4150441 0.31513625 1.038818
0.42179841 0.31370658 1.039
0.4480862 0.31392035 1.0378
0.45460862 0.31473061 1.0360398
0.46509293 0.31477374 1.0355808
0.4757233 0.31475544 1.0361199
0.48448724 0.31509995 1.0346552
0.49458957 0.3155098 1.0335001
0.50422257 0.31520209 1.0315557
0.51484925 0.31512687 1.0319642
0.52208537 0.31237406 1.0307999
0.53815889 0.31670412 1.03
0.54513741 0.31612051 1.0318888
0.55232447 0.31803486 1.0320001
0.56776065 0.3112911 1.031
0.57062089 0.3112911 1.031
0.40440765 0.32677367 1.039
0.41939637 0.32907963 1.039
0.42550045 0.32711175 1.0383847
0.43472332 0.32712302 1.0388889
0.44313797 0.3267118 1.0388
0.45328242 0.32482076 1.0383158
0.46693808 0.32319397 1.0372856
0.47496384 0.32513815 1.0352499
0.48506221 0.32542461 1.0337001
0.4940671 0.32424188 1.0307502
0.50526077 0.32479298 1.0314801
0.51401085 0.32440773 1.0306667
0.52312809 0.32794422 1.0306001
0.53482515 0.32194284 1.0299999
0.54611534 0.32093561 1.0303334
0.55498868 0.32400277 1.030846
0.56244749 0.32813406 1.03
0.37783602 0.33676076 1.0378001
0.3814961 0.3363874 1.0378333
0.39761785 0.33804724 1.039
0.40430114 0.33530936 1.0388182
0.4164792 0.33676344 1.0385715
0.42467302 0.33586937 1.0381429
0.4364278 0.33594391 1.0375454
0.44334838 0.3359336 1.0381765
0.45576969 0.33593407 1.0372857
0.46540114 0.33499846 1.0353333
0.47414386 0.33471739 1.03268
0.48484477 0.33485323 1.0331002
0.49467629 0.33432192 1.0312309
0.50481743 0.33460593 1.0325834
0.51474774 0.33488184 1.0325
0.52455497 0.33509728 1.0317501
0.53006268 0.3348015 1.03
0.55843198 0.33162799 1.0304999
0.56296784 0.33284166 1.0306363
0.35790411 0.34829596 1.039
0.36174738 0.34253106 1.039
0.37802613 0.34537163 1.0385556
0.38245344 0.3423903 1.0385715
0.39774618 0.34204623 1.0385001
0.40591985 0.34383452 1.0382379
0.41510966 0.3450456 1.0378929
0.42460287 0.34514001 1.0352999
0.43505603 0.34476236 1.0357274
0.44509906 0.34497941 1.0362067
0.45522055 0.34505838 1.0356131
0.46469361 0.34449449 1.0315862
0.47407565 0.34475023 1.0322222
0.48450521 0.34480095 1.0347501
0.49393094 0.3442632 1.0326667
0.50464153 0.34349963 1.03084
0.51559979 0.3438167 1.0311154
0.52435726 0.34420878 1.0303077
0.53019136 0.34631568 1.03025
0.35694331 0.35021758 1.039
0.37532675 0.35587075 1.037909
0.38084149 0.35490775 1.0386667
0.39660761 0.35766634 1.0372001
0.40499225 0.3573041 1.0376922
0.41483527 0.35527211 1.0375769
0.42406422 0.35506645 1.0363201
0.43492126 0.35559943 1.0373104
0.44495603 0.35507327 1.0346669
0.45483261 0.35468191 1.0342144
0.46503302 0.35513592 1.0348077
0.47432035 0.35552371 1.0322962
0.4848651 0.35579497 1.0346206
0.49402392 0.35391366 1.0326
0.50461495 0.3536489 1.0303332
0.51519698 0.35506272 1.03075
0.52053773 0.3509939 1.03
0.54816008 0.35194638 1.03
0.55101752 0.35194641 1.03
0.34829596 0.36943391 1.039
0.35117841 0.36943391 1.039
0.37519884 0.36174738 1.039
0.38865024 0.36462983 1.039
0.39457956 0.36337483 1.0375789
0.40539744 0.36547396 1.0361334
0.41435173 0.36476117 1.0358075
0.42500529 0.36541203 1.038077
0.43525112 0.36498526 1.0371002
0.44523871 0.3656798 1.0349001
0.45499077 0.36513141 1.0347272
0.46505576 0.3649525 1.0344707
0.47463661 0.36492801 1.0312963
0.48409048 0.36393547 1.0304285
0.49791953 0.367365 1.0304999
0.50469655 0.36545759 1.0312999
0.5136323 0.36376154 1.0310909
0.52280962 0.36433655 1.0311
0.34829596 0.37327719 1.039
0.35481825 0.37499321 1.0388747
0.36501649 0.37758759 1.0383637
0.37583092 0.37619859 1.037077
0.38427076 0.37669972 1.0367368
0.39554569 0.37815228 1.0372665
0.40498608 0.37550393 1.0356786
0.41531309 0.37502599 1.0352081
0.42508876 0.37488493 1.035794
0.43512359 0.37449956 1.0359998
0.44551048 0.37569591 1.034606
0.45496789 0.37515247 1.0313873
0.4650684 0.37352771 1.032087
0.475703 0.37455139 1.03192
0.48410827 0.37509686 1.0312105
0.4954682 0.37572414 1.03095
0.50322938 0.37345117 1.0311054
0.5163269 0.37885734 1.0302857
0.53522372 0.37742904 1.0303999
0.27143064 0.38865024 1.039
0.33820736 0.38672861 1.039
0.35865715 0.38458458 1.0384001
0.36495769 0.38449192 1.0370002
0.37501046 0.3849121 1.0358332
0.38536432 0.38495979 1.0366842
0.39472523 0.38517329 1.0332105
0.40458629 0.38538584 1.0333912
0.414377 0.38520822 1.0365715
0.42438507 0.38515317 1.0347667
0.43659854 0.38450801 1.0365863
0.44462046 0.38462952 1.0324999
0.45386124 0.38520235 1.0312381
0.46679384 0.38569471 1.0306363
0.47478998 0.38488808 1.0317143
0.48501679 0.38486391 1.0314332
0.49410003 0.38473591 1.0313703
0.50910783 0.38718867 1.03
0.51413339 0.38645047 1.0303998
0.52236569 0.38703284 1.0306
0.33558366 0.3938238 1.0389998
0.34441054 0.39556801 1.0388751
0.35561416 0.39555502 1.0379231
0.3654238 0.39433718 1.0385263
0.37568542 0.39488399 1.0379165
0.38530624 0.39507952 1.0366775
0.39436257 0.39461485 1.0329567
0.40509227 0.39459109 1.0325419
0.41530907 0.39503819 1.0338
0.42453986 0.39477104 1.0339
0.43517828 0.39546442 1.0358183
0.44514388 0.39579889 1.0347812
0.45236239 0.39424688 1.0332352
0.46541992 0.3957243 1.0323888
0.47482818 0.39492533 1.0314075
0.48384184 0.39448527 1.0301501
0.49209914 0.39246777 1.0302856
0.50910783 0.3929036 1.03
0.51525211 0.39557391 1.0319999
0.52296615 0.39484629 1.0331904
0.62742001 0.39874759 1.0303334
0.3185164 0.40714881 1.0385715
0.32482386 0.40473789 1.0384781
0.3463743 0.4034743 1.039
0.3541508 0.40256208 1.0386999
0.36810312 0.40402031 1.0385001
0.37452313 0.40515143 1.0375384
0.38484544 0.40501937 1.0369655
0.394649 0.40459129 1.035154
0.40485105 0.40485385 1.0361998
0.4145264 0.40376765 1.0355239
0.42491651 0.40385914 1.0351875
0.43506542 0.40380821 1.03475
0.44472399 0.40422544 1.0351052
0.45469323 0.40461838 1.0340625
0.46513069 0.40448114 1.0349376
0.4755114 0.40379396 1.0356667
0.48435697 0.40537339 1.0340999
0.49465346 0.40528351 1.0339475
0.5057373 0.40560231 1.0327619
0.51533335 0.40497997 1.0314615
0.52457988 0.40478432 1.0319998
0.53360385 0.40639845 1.0314211
0.54011148 0.4085398 1.031
0.55689204 0.40644264 1.031
0.59864223 0.40052357 1.03
0.60308719 0.40179357 1.03
0.61334467 0.40349132 1.0315
0.62860399 0.40220314 1.0303999
0.63123125 0.40255818 1.0303333
0.69923973 0.40358576 1.0313333
0.70151156 0.40242857 1.03
0.3040984 0.41939637 1.039
0.31851065 0.41170985 1.039
0.32219923 0.41151172 1.0385001
0.33700636 0.41771495 1.039
0.34340426 0.41749275 1.03825
0.35021758 0.41939637 1.039
0.36687124 0.41630316 1.0368888
0.37493974 0.4152647 1.03828
0.3843669 0.41537234 1.0374
0.39543644 0.41628829 1.0364398
0.40401313 0.41586047 1.0372354
0.41377756 0.41805077 1.0353076
0.42475286 0.41812608 1.0347692
0.43507922 0.41798016 1.0348667
0.4457165 0.41756588 1.0344763
0.45517692 0.41594416 1.0338572
0.46592027 0.4149496 1.0344285
0.47524616 0.41563985 1.0337931
0.48411033 0.41235694 1.0337895
0.49454212 0.41235298 1.0333999
0.50390947 0.41199756 1.0340587
0.52513343 0.4113847 1.0321666
0.53742552 0.41248551 1.0313333
0.54155672 0.41312209 1.0313333
0.55795527 0.41024756 1.0304999
0.56149501 0.41671598 1.03
0.27681121 0.42862025 1.039
0.28196579 0.42414954 1.038875
0.30313757 0.42131799 1.039
0.31339112 0.4272204 1.0387501
0.32500455 0.42578503 1.0388182
0.33652765 0.4250145 1.038
0.34454879 0.42456922 1.0375501
0.35502172 0.42227885 1.0389999
0.36466739 0.42504889 1.0363845
0.37483197 0.42461705 1.0369201
0.385499 0.42476192 1.0373571
0.39441416 0.42502356 1.0343752
0.40459082 0.42329842 1.037375
0.41455251 0.42521596 1.034238
0.42585683 0.42585602 1.0340527
0.43551514 0.4245179 1.0345001
0.44402218 0.42583773 1.0327393
0.45746699 0.42507401 1.0303999
0.46631309 0.42666715 1.031357
0.47463945 0.42514867 1.0308695
0.48285237 0.42363101 1.0329286
0.49196297 0.42909837 1.03
0.52515876 0.42476565 1.0301538
0.53245705 0.42860225 1.0303332
0.26614612 0.43524987 1.039
0.275341 0.43293291 1.0382143
0.3067221 0.43536252 1.0381249
0.31242546 0.43476942 1.039
0.32620162 0.43233272 1.0381818
0.33491862 0.43436661 1.03804
0.34511477 0.43413645 1.0369031
0.35422757 0.43588412 1.036
0.36450353 0.43522125 1.0365186
0.37588486 0.43485904 1.0369284
0.38438746 0.43422925 1.035077
0.39403448 0.43387225 1.038
0.40491638 0.43537009 1.03696
0.41522014 0.43516201 1.0352069
0.42532426 0.43489182 1.0347199
0.43554568 0.43503836 1.0346766
0.44420677 0.43458745 1.032077
0.45419407 0.43584582 1.0324445
0.4649986 0.43464842 1.0317619
0.47265357 0.43718606 1.0311
0.49167711 0.43184906 1.0302
0.50910783 0.43862331 1.03
0.51246238 0.43904918 1.031
0.52867049 0.43142185 1.031
0.53556168 0.43487507 1.03105
0.54028612 0.4353762 1.0313333
0.55494839 0.43625724 1.0305454
0.65356392 0.4375402 1.0325
0.22904444 0.44896507 1.0385001
0.23416516 0.44866264 1.0375555
0.24045286 0.44874841 1.038
0.27559903 0.44259176 1.0389091
0.30698085 0.44053432 1.039
0.33654943 0.44025168 1.0383334
0.34615242 0.44174567 1.0383334
0.35516644 0.44496194 1.036625
0.36506966 0.44554132 1.0359643
0.37474093 0.44471246 1.0365001
0.38511658 0.44613746 1.0358148
0.3944931 0.44618237 1.036909
0.40479487 0.44569224 1.0360624
0.41437492 0.44568273 1.0357242
0.42551023 0.44579345 1.0363871
0.43479732 0.44495404 1.0350869
0.44485614 0.44581285 1.0335668
0.4543899 0.44452152 1.0325
0.46480981 0.44459951 1.032138
0.47389361 0.4448823 1.0312631
0.48438409 0.44678688 1.0304545
0.50616747 0.44595104 1.0312141
0.51296526 0.44479033 1.0323532
0.53454375 0.44235605 1.030375
0.65515006 0.44160101 1.0339999
0.22641136 0.45474076 1.0381666
0.23566566 0.45220134 1.036909
0.24195783 0.45407274 1.0385715
0.25701839 0.45975065 1.039
0.28680372 0.4501425 1.039
0.31883094 0.45334521 1.039
0.32522327 0.45671844 1.0383158
0.33469912 0.45576242 1.0382727
0.34765542 0.45142362 1.039
0.35470608 0.45473671 1.0386784
0.36552414 0.45349672 1.0369999
0.37598333 0.45441663 1.0365908
0.3847734 0.45514026 1.0352501
0.39511243 0.45572594 1.0357858
0.40428495 0.45461872 1.0343846
0.41504645 0.45554209 1.0322425
0.42457008 0.45469099 1.0328846
0.43637711 0.45601273 1.0368
0.44457889 0.45346397 1.0330001
0.4545407 0.45535377 1.0320003
0.46435434 0.4553431 1.0323199
0.47385478 0.45468318 1.0305882
0.48581016 0.455318 1.0304166
0.49077213 0.45789537 1.0304999
0.50910783 0.45767319 1.03
0.54911256 0.45957819 1.03
0.55310148 0.45782128 1.0303333
0.22531146 0.46167231 1.039
0.29866987 0.46721223 1.0385001
0.30121592 0.46455476 1.039
0.3165631 0.46546924 1.0368824
0.32483944 0.46501929 1.0358999
0.33439922 0.46508518 1.0373846
0.34146062 0.46728662 1.0386667
0.35790411 0.46167231 1.039
0.36436731 0.46902001 1.0382501
0.37946823 0.46894345 1.0366666
0.38498268 0.46505466 1.0360302
0.39503255 0.46483955 1.0335174
0.40588492 0.46489325 1.0347666
0.41442564 0.46454361 1.0314091
0.42488536 0.46509004 1.0330436
0.43398449 0.46419361 1.0327408
0.44802833 0.46708927 1.0306001
0.45406616 0.46519819 1.0316666
0.46776468 0.46108887 1.03125
0.47670686 0.46145403 1.031
0.48053303 0.46338814 1.03
0.49386793 0.4691031 1.03
0.50808436 0.4645656 1.0305001
0.51439768 0.46472317 1.0315554
0.54883295 0.46241748 1.0306667
0.55421203 0.4633992 1.0327274
0.25797921 0.47896701 1.039
0.26846361 0.47528055 1.0381429
0.27194056 0.47649577 1.0385001
0.29256859 0.47896704 1.039
0.30746126 0.47656497 1.039
0.31483495 0.47376493 1.0344483
0.32474193 0.47427416 1.0337142
0.33579677 0.47545382 1.0364287
0.34408709 0.47612876 1.0382352
0.35982576 0.47320211 1.039
0.36544031 0.47515011 1.0362726
0.37492383 0.4749569 1.0365455
0.38596758 0.47465193 1.0364211
0.39488766 0.47530162 1.0352
0.40532225 0.47491989 1.0349643
0.41415802 0.4740805 1.0318799
0.42568791 0.47495174 1.0350769
0.43490967 0.47407722 1.0320739
0.44541988 0.47664905 1.0311249
0.454117 0.47516805 1.0310769
0.46086577 0.47802314 1.03075
0.47561789 0.47738838 1.0311428
0.48481721 0.47743118 1.0304999
0.49315569 0.47314173 1.0305001
0.67612672 0.47803894 1.0373333
0.22749287 0.48682982 1.0358125
0.2327144 0.48678139 1.037077
0.25759488 0.48319459 1.039
0.27143064 0.48088863 1.039
0.28524268 0.48675632 1.0376874
0.30616036 0.48498037 1.0383887
0.31554753 0.48582608 1.0356002
0.32525685 0.48416108 1.0324349
0.33566424 0.48506078 1.0355999
0.34510642 0.48505113 1.0355864
0.35550743 0.4860903 1.0365926
0.36446089 0.48405764 1.0334643
0.37465739 0.48630574 1.0361053
0.38623694 0.4874028 1.0353889
0.39508224 0.48449758 1.0341071
0.40503374 0.48544273 1.03625
0.41373977 0.48476264 1.0327036
0.42520142 0.48470092 1.0355517
0.43506351 0.48434159 1.0346428
0.44417354 0.48541501 1.03228
0.45391786 0.48440135 1.0301249
0.46631578 0.48361874 1.0313572
0.47122261 0.48298511 1.0311667
0.48815298 0.48053303 1.03
0.49196294 0.48275551 1.0299999
0.52244276 0.48053303 1.03
0.65611088 0.48432821 1.0320001
0.67305195 0.48184943 1.039
0.70546532 0.48957479 1.033
0.72980195 0.48190862 1.035
0.73267341 0.48286578 1.035
0.22635256 0.49445644 1.0343571
0.23371066 0.49378112 1.0367273
0.28505176 0.49366012 1.0365626
0.29057702 0.49326029 1.0387501
0.3065111 0.49438623 1.038
0.31583917 0.4948023 1.0374092
0.32473373 0.49497581 1.0346553
0.33436757 0.49483758 1.0340292
0.34572774 0.49564129 1.0363045
0.35480684 0.49574077 1.0348057
0.36493742 0.4951275 1.0335187
0.37471363 0.49505803 1.0344195
0.38472071 0.49476311 1.0317333
0.39534214 0.49401996 1.0336925
0.40546659 0.49373859 1.03308
0.41558334 0.49518925 1.0316401
0.42569831 0.49494743 1.0313913
0.43472314 0.49413374 1.033815
0.44373298 0.49100912 1.0315557
0.45468077 0.49507415 1.0314782
0.59864223 0.49958292 1.03
0.60054719 0.49958292 1.03
0.70683116 0.49339402 1.035
0.71488929 0.49312994 1.036091
0.19753048 0.50710309 1.0387143
0.20033023 0.50683069 1.039
0.21834314 0.50744468 1.0363333
0.22426254 0.50584501 1.0362799
0.28670314 0.50639075 1.0386363
0.29433921 0.50753021 1.0384666
0.30592248 0.50122499 1.0386667
0.3171213 0.50518918 1.0376
0.32622823 0.50404054 1.0357058
0.33540845 0.50500953 1.034238
0.34588507 0.50449276 1.0339687
0.35487786 0.50471663 1.0320555
0.3651534 0.50538331 1.0340717
0.3750366 0.50491422 1.0321727
0.38526899 0.50534225 1.0318
0.39572221 0.50517738 1.0339309
0.40459368 0.50438654 1.0341427
0.41413313 0.50472492 1.033613
0.42520958 0.50349724 1.0307333
0.43260345 0.50203806 1.0305713
0.45625722 0.50473595 1.0311054
0.46075377 0.50649607 1.0304999
0.49545881 0.50816613 1.0306667
0.51863277 0.50148791 1.03
0.52053773 0.50244039 1.03
0.53958762 0.50434536 1.03
0.54629701 0.50534505 1.0334285
0.55348301 0.50467455 1.0314704
0.56135952 0.50482637 1.0303334
0.57398957 0.50806367 1.0302
0.59673721 0.50498039 1.0299999
0.60054719 0.50148791 1.03
0.19744778 0.51163477 1.039
0.21767266 0.51238191 1.0374
0.22426166 0.51276737 1.0361112
0.23796976 0.5164271 1.0383333
0.24117063 0.5164271 1.0383333
0.27911717 0.51739967 1.039
0.28625381 0.51343191 1.0387501
0.29553241 0.51371193 1.0365999
0.30507839 0.51292813 1.0357999
0.31571606 0.51492631 1.0378889
0.32191485 0.5145545 1.0371429
0.33466735 0.51304924 1.037077
0.3443597 0.51336735 1.0377058
0.35581052 0.51334947 1.036
0.36506999 0.51355296 1.0355264
0.37498632 0.51255053 1.0319999
0.38477802 0.51065385 1.0312001
0.39786467 0.51179165 1.0315715
0.40478969 0.51159066 1.0311667
0.4149864 0.51240188 1.0328001
0.42287078 0.51287007 1.0328889
0.45672071 0.51101285 1.03
0.51863277 0.51291782 1.03
0.52343208 0.51275337 1.0312001
0.54611307 0.51185614 1.0327333
0.55124509 0.51108497 1.034
0.57537758 0.51104528 1.0317143
0.70355481 0.51441175 1.033
0.47505879 -0.52219492 1.0473334
0.48379406 -0.52153867 1.0466667
0.49476588 -0.52185273 1.046
0.50685841 -0.52135384 1.045
0.51025176 -0.52188146 1.048
0.53719425 -0.52138162 1.0469999
0.5455485 -0.52136499 1.0458
0.56258523 -0.52091229 1.048
0.58379072 -0.52210587 1.0492857
0.59712476 -0.52085495 1.044
0.63939601 -0.52190638 1.05
0.64099956 -0.52122575 1.0473334
0.47679245 -0.51729375 1.0426667
0.48135144 -0.51501238 1.04
0.49729767 -0.51795185 1.0436
0.50545436 -0.51819956 1.0460908
0.51073861 -0.51752722 1.049
0.53683949 -0.51403683 1.0458571
0.54440576 -0.51525545 1.0454212
0.55721462 -0.51526839 1.0452
0.56603158 -0.51638818 1.0463847
0.57581264 -0.51733077 1.0453334
0.58366549 -0.51295716 1.0426668
0.59364915 -0.51147586 1.0454444
0.60582972 -0.51471454 1.04625
0.61392021 -0.51385021 1.0477142
0.63858408 -0.51607734 1.0486666
0.64173949 -0.5183596 1.0456001
0.65509415 -0.51165694 1.041
0.51944709 -0.50589204 1.0469999
0.52244288 -0.50651181 1.0485715
0.53536379 -0.50588691 1.045
0.54549778 -0.50607675 1.043
0.55224717 -0.50605094 1.048
0.57748514 -0.5029915 1.0462
0.58279437 -0.50434941 1.0471667
0.59603584 -0.50636965 1.0463333
0.6049068 -0.50363624 1.0443333
0.61245936 -0.50654984 1.0458751
0.6262992 -0.50311255 1.04475
0.6337496 -0.50503057 1.0455
0.64234328 -0.50347382 1.0465
0.65509415 -0.50973159 1.041
0.66664618 -0.5001049 1.041
0.69837111 -0.5018689 1.0433334
0.70072043 -0.50203025 1.043
0.71429813 -0.50251162 1.041
0.51899344 -0.49083474 1.05
0.53491211 -0.49480936 1.0406667
0.54648399 -0.49187928 1.0450001
0.55495256 -0.49523607 1.0469999
0.56711203 -0.49225202 1.0468334
0.57459503 -0.49465093 1.0469286
0.58568448 -0.4941178 1.0454999
0.59174103 -0.49524105 1.0469999
0.60740733 -0.49382758 1.044
0.61400884 -0.49479637 1.0451738
0.62541813 -0.49348217 1.0459499
0.6353004 -0.49676529 1.0427501
0.6451931 -0.49044618 1.0436667
0.66636097 -0.49694633 1.0415555
0.69879144 -0.49913672 1.043
0.70072043 -0.49913672 1.043
0.72550082 -0.49072403 1.0404999
0.51633465 -0.48437923 1.047143
0.53803271 -0.48629498 1.0444286
0.54570478 -0.48643517 1.0439001
0.55399382 -0.48535106 1.0432857
0.56562763 -0.4850111 1.0458182
0.57344306 -0.48674861 1.0469092
0.58697355 -0.48826256 1.0421429
0.59259719 -0.48546666 1.0483749
0.60685635 -0.48800734 1.045
0.61627281 -0.48584947 1.040875
0.62687242 -0.48756826 1.0461249
0.63799262 -0.48671073 1.0420001
0.64499658 -0.48750964 1.0436364
0.65254134 -0.48038968 1.04
0.66488093 -0.48192972 1.04125
0.67198843 -0.48294678 1.0483333
0.7265954 -0.4880836 1.04
0.53452921 -0.47141495 1.05
0.55059677 -0.47846618 1.04
0.56761754 -0.47846669 1.0430001
0.57269883 -0.47878203 1.0470001
0.58613241 -0.47452018 1.0471332
0.5956471 -0.47348651 1.0469999
0.60391676 -0.47269312 1.0475385
0.64169729 -0.47193611 1.049
0.6570639 -0.47913679 1.0456667
0.66377878 -0.47423807 1.0468
0.68579775 -0.47233352 1.0425999
0.69178921 -0.47394097 1.0470001
0.48805869 -0.46782327 1.0420001
0.49215856 -0.4683682 1.0458
0.56824267 -0.46148524 1.0495
0.58546126 -0.46665022 1.0476364
0.59350479 -0.4688969 1.0468571
0.60741621 -0.46348089 1.0462222
0.61033064 -0.46579662 1.049
0.62730938 -0.46260571 1.0432856
0.63488209 -0.46453816 1.0459445
0.64581573 -0.4650116 1.0446923
0.65612257 -0.46392098 1.0459286
0.6631974 -0.46185941 1.04925
0.67850834 -0.46115485 1.04
0.68568039 -0.46850815 1.0406667
0.56824362 -0.45954418 1.0495
0.60639167 -0.45491311 1.0433334
0.61220831 -0.45005322 1.05
0.62636501 -0.45460865 1.0441113
0.63388389 -0.45214146 1.0445715
0.64683592 -0.45445752 1.0438502
0.65494275 -0.4552421 1.04575
0.66414768 -0.45227635 1.0446668
0.6749931 -0.45459491 1.0444
0.68012345 -0.45871031 1.041
0.59194082 -0.44262323 1.0484999
0.60730219 -0.44374493 1.0465715
0.61439198 -0.44347697 1.0475713
0.62451202 -0.44698656 1.0436471
0.63404703 -0.44638744 1.0470999
0.64436221 -0.44521594 1.0448236
0.65458524 -0.44425607 1.0447059
0.66485822 -0.44447568 1.0428236
0.67506629 -0.44349948 1.0452381
0.68208838 -0.44447646 1.0445
0.69257969 -0.44204798 1.0433333
0.5897212 -0.43853545 1.048
0.59350574 -0.43655863 1.0480666
0.60761487 -0.43825194 1.0465556
0.61285627 -0.43858084 1.0458
0.62802935 -0.43235943 1.043625
0.63369489 -0.43742305 1.0435001
0.64246351 -0.43735054 1.0413333
0.6575166 -0.43608111 1.045625
0.665398 -0.4367815 1.045611
0.67542768 -0.43526685 1.0430001
0.68320215 -0.43614063 1.0469
0.69041276 -0.43891555 1.0420001
0.72371024 -0.43037912 1.04
0.62489498 -0.42406994 1.0440832
0.63543051 -0.42383376 1.0442353
0.64491862 -0.42250967 1.0472001
0.65434325 -0.42481211 1.0473125
0.66519839 -0.42639133 1.0478183
0.67947006 -0.42076173 1.04
0.68524945 -0.42150357 1.046625
0.69182938 -0.42286554 1.05
0.72371024 -0.42845565 1.04
0.62730759 -0.41506973 1.0443077
0.63472629 -0.41378748 1.0455
0.64432484 -0.41503862 1.0461875
0.65595931 -0.41396311 1.0418181
0.66414136 -0.4123852 1.0461538
0.67447025 -0.41430247 1.0471667
0.68533731 -0.41697931 1.0476364
0.71924663 -0.41615254 1.0404999
0.72234666 -0.41390404 1.0415001
0.61681467 -0.40372789 1.0460001
0.62542641 -0.40606666 1.0462856
0.63352644 -0.40654999 1.048
0.64599013 -0.40630335 1.0445238
0.65442598 -0.40518129 1.0468235
0.6652658 -0.40616554 1.0442222
0.67080635 -0.40781081 1.0474999
0.6070646 -0.39160734 1.0495
0.61738688 -0.39438319 1.05
0.6274597 -0.39358532 1.0484444
0.63499761 -0.39375332 1.04875
0.64566368 -0.39146596 1.0452499
0.65195739 -0.39668465 1.045625
0.68718296 -0.39677879 1.041
0.53888899 -0.38649276 1.0496666
0.54035515 -0.38790995 1.05
0.58566791 -0.38273135 1.05
0.60689801 -0.38553116 1.0491177
0.61622077 -0.38449714 1.0477501
0.62507331 -0.38566601 1.0447035
0.63434279 -0.38586321 1.0469412
0.64353794 -0.38466218 1.048
0.65308684 -0.38382557 1.0455002
0.60861635 -0.37851286 1.0455
0.61458516 -0.3756758 1.043516
0.62483042 -0.37530842 1.0434
0.63587379 -0.3736372 1.0489999
0.6440295 -0.37538064 1.0454446
0.65333855 -0.37720573 1.0436667
0.66568816 -0.37308905 1.0465556
0.67134619 -0.37659344 1.0473332
0.69552612 -0.37592101 1.041
0.70551676 -0.37396181 1.04225
0.61681658 -0.36741105 1.0453571
0.62496197 -0.36494476 1.0458461
0.63600874 -0.36517513 1.045375
0.64190346 -0.36496696 1.04225
0.65668243 -0.36347198 1.0448889
0.66317284 -0.36366841 1.0446399
0.69895637 -0.36227551 1.0444001
0.70539176 -0.36471567 1.0442001
0.71232569 -0.36331567 1.0462857
0.62767649 -0.35519794 1.04625
0.63502824 -0.35602528 1.04512
0.64556897 -0.35373804 1.044143
0.65477222 -0.35372418 1.0451
0.66349071 -0.35726777 1.0438125
0.67533404 -0.35298347 1.0420001
0.70536017 -0.35821488 1.0408332
0.71877027 -0.35093752 1.044
0.72250855 -0.35550305 1.0455
0.60856938 -0.34380597 1.0487499
0.61517382 -0.34295124 1.0491
0.62567478 -0.34601113 1.0473913
0.63427919 -0.34462512 1.0475625
0.64712518 -0.34342512 1.0466001
0.6550836 -0.34582752 1.0443929
0.66485667 -0.345135 1.0433078
0.67532504 -0.34500533 1.0453845
0.68763942 -0.34020242 1.0426666
0.69386011 -0.34042034 1.0433333
0.70805079 -0.34315452 1.0450001
0.71352607 -0.34534422 1.0441539
0.72199744 -0.34845963 1.0469999
0.59929639 -0.33361259 1.0478001
0.6050567 -0.33349299 1.0477059
0.6158812 -0.33486968 1.0483809
0.62184697 -0.33591059 1.0493333
0.63530558 -0.33484066 1.045913
0.64411354 -0.33501601 1.0450643
0.65587175 -0.33587351 1.0403999
0.66565484 -0.3361834 1.0420001
0.67525822 -0.33461815 1.043074
0.68435001 -0.33670032 1.0431539
0.69410235 -0.33737373 1.043
0.70441014 -0.33520263 1.0457778
0.5969851 -0.32562152 1.048
0.60604566 -0.32584432 1.0471365
0.6142897 -0.32529643 1.0471112
0.62575018 -0.32345921 1.0481111
0.6349349 -0.32568136 1.0483333
0.64561146 -0.32598993 1.047276
0.6521064 -0.32622597 1.0439287
0.66664463 -0.32430848 1.0422
0.67554903 -0.32456771 1.0467895
0.6812005 -0.3243714 1.0437143
0.69575071 -0.32885566 1.0413333
0.70197392 -0.32906625 1.0419999
0.71986324 -0.32458764 1.04
0.72178668 -0.32362589 1.04
0.5951342 -0.31898877 1.0489999
0.60346943 -0.31751329 1.05
0.62678373 -0.31758228 1.0471537
0.63529629 -0.3176958 1.049
0.6457147 -0.31616205 1.0459311
0.65372425 -0.31276619 1.046091
0.66760969 -0.31542328 1.0415001
0.67631841 -0.31641164 1.044762
0.48865998 -0.30134887 1.0495
0.62968612 -0.30052099 1.05
0.63651359 -0.30216402 1.0480001
0.64491838 -0.30540711 1.0465001
0.65566576 -0.30543748 1.0457059
0.66456413 -0.3042385 1.0436896
0.67429495 -0.30688408 1.0439
0.70472312 -0.30160925 1.0421818
0.48866045 -0.29843682 1.0495
0.61587024 -0.29136586 1.0488889
0.62687021 -0.29639447 1.048
0.63499653 -0.29549915 1.0470966
0.64440954 -0.29593751 1.0456818
0.65572238 -0.29583871 1.0463846
0.66610605 -0.29538611 1.0421667
0.67561007 -0.29271805 1.0452776
0.69574243 -0.29300687 1.043125
0.70448977 -0.29574424 1.0449444
0.71863008 -0.29024377 1.041
0.72055542 -0.29024377 1.041
0.60741496 -0.28283924 1.0486923
0.61464345 -0.28424487 1.0469565
0.62177581 -0.28139037 1.0486666
0.63749152 -0.28439349 1.0489999
0.64463228 -0.28220221 1.0481818
0.65465134 -0.28381366 1.0456874
0.66632533 -0.28295299 1.041625
0.67592382 -0.28646415 1.0462856
0.68403155 -0.28409845 1.0436523
0.6931538 -0.28497344 1.0428749
0.70515776 -0.28550288 1.0432222
0.71533662 -0.28336939 1.0436471
0.72107458 -0.28563681 1.0417501
0.58565658 -0.27278966 1.0494001
0.59808022 -0.2745578 1.0484999
0.60481316 -0.27456364 1.0472801
0.61459577 -0.27453727 1.0463928
0.62460893 -0.27411696 1.0490001
0.63696557 -0.27403605 1.0478824
0.64419705 -0.27401397 1.0444838
0.65539145 -0.27496189 1.0447588
0.66527492 -0.27510014 1.042853
0.67453748 -0.27563888 1.0419286
0.68580222 -0.27659699 1.0420588
0.69074404 -0.27812979 1.0425
0.70452976 -0.27882564 1.0415
0.7167111 -0.27650163 1.0424167
0.72129613 -0.27279466 1.0430001
0.58369058 -0.26536638 1.0482174
0.59998453 -0.26822269 1.049
0.60444981 -0.26482081 1.0458846
0.61516553 -0.26484257 1.0474585
0.6248458 -0.2651121 1.0470742
0.63409418 -0.26742032 1.0485713
0.64529455 -0.26519796 1.0485417
0.65426362 -0.26520655 1.0463929
0.66333342 -0.26643392 1.0420001
0.67567396 -0.26644179 1.0415626
0.68076468 -0.26200557 1.041
0.71651721 -0.26441547 1.0419999
0.72085899 -0.26632237 1.0428334
0.57737845 -0.25593629 1.0494444
0.58559316 -0.25448102 1.0489999
0.59338886 -0.25367153 1.049
0.60835677 -0.25611192 1.0480001
0.61479074 -0.25532237 1.0488125
0.6247465 -0.25541064 1.0484999
0.63628715 -0.25404254 1.0475791
0.64444107 -0.25502691 1.0463077
0.65376049 -0.25395057 1.045036
0.66194147 -0.25871423 1.0406666
0.67772859 -0.25354895 1.0425
0.68402797 -0.25632969 1.0455
0.7176221 -0.25880685 1.0423335
0.5851208 -0.2470898 1.0483077
0.59410256 -0.24366093 1.04975
0.60519201 -0.24522738 1.0484999
0.61543447 -0.24583063 1.0483046
0.62407345 -0.24501708 1.0457588
0.63524389 -0.24566713 1.0479546
0.64344138 -0.24475732 1.0469501
0.65717995 -0.24463661 1.0445
0.66035444 -0.24704711 1.0483333
0.6881454 -0.24210924 1.041
0.69041276 -0.24041589 1.0420001
0.59624761 -0.23476855 1.0482174
0.60461843 -0.23361044 1.0491176
0.61611146 -0.23320366 1.0478333
0.62462085 -0.23586304 1.046815
0.63655382 -0.2361837 1.0474584
0.64462239 -0.23449717 1.0449063
0.65408343 -0.23508735 1.044
0.6878354 -0.23762664 1.0416
0.69041276 -0.23656152 1.0420001
0.7025519 -0.23033701 1.04
0.56754285 -0.22089989 1.05
0.57498163 -0.2207737 1.0494
0.58183098 -0.22079474 1.0495
0.59809214 -0.22469081 1.0495714
0.60557592 -0.22463895 1.0489091
0.61487043 -0.2251149 1.0471715
0.62509614 -0.22472109 1.0473703
0.63397133 -0.2245336 1.0436666
0.64601886 -0.22751085 1.0427856
0.65312648 -0.2247692 1.0409334
0.70277709 -0.22752468 1.0403333
0.56525886 -0.21521497 1.0485455
0.57563406 -0.21588579 1.0494735
0.58420396 -0.21444076 1.0480002
0.59482586 -0.21475665 1.0484582
0.60304922 -0.21633388 1.0498333
0.61671478 -0.21422929 1.0454286
0.62604052 -0.21518803 1.0451053
0.63573962 -0.21548606 1.0462581
0.64477772 -0.21398395 1.0451363
0.65461791 -0.21410851 1.044643
0.66446608 -0.21160868 1.0406001
0.67278051 -0.21298328 1.041889
0.68427885 -0.21494915 1.04
0.56851387 -0.20924805 1.05
0.57808501 -0.2064738 1.0500001
0.58605266 -0.20352839 1.0496364
0.59484947 -0.20507173 1.0485001
0.60461724 -0.20369533 1.0487334
0.61367738 -0.20527351 1.0449642
0.62554961 -0.20594542 1.0438462
0.63505691 -0.20482068 1.0436786
0.64509219 -0.20505047 1.0424668
0.6555149 -0.20534877 1.0437932
0.66472018 -0.20740305 1.0414287
0.67427379 -0.20685823 1.0412222
0.68175948 -0.20247665 1.0438751
0.53742462 -0.19229583 1.0493333
0.54035515 -0.19177026 1.05
0.57919472 -0.19953817 1.05
0.58615357 -0.1955781 1.0483528
0.59500384 -0.19517124 1.0464545
0.60494238 -0.19492796 1.044739
0.61462504 -0.19427517 1.0440001
0.62840354 -0.19586562 1.0408
0.63544947 -0.19466163 1.0417144
0.64585006 -0.19741759 1.0402857
0.6561743 -0.19485641 1.0411875
0.67627275 -0.19879144 1.041
0.71536773 -0.19413455 1.0418571
0.72087741 -0.19204985 1.048
0.53421819 -0.18661967 1.0479231
0.54035515 -0.18982828 1.05
0.57583284 -0.1822381 1.0496249
0.58572614 -0.18470894 1.0455383
0.59579039 -0.18566103 1.0465218
0.60452276 -0.18448016 1.0455173
0.61531651 -0.18514064 1.0437499
0.63728023 -0.1857695 1.0405555
0.64571643 -0.18476523 1.0425556
0.65539742 -0.18648933 1.0405384
0.66587484 -0.18488611 1.0423462
0.67081892 -0.18347548 1.0415001
0.72124255 -0.1896475 1.049
0.56948483 -0.17429246 1.05
0.57565445 -0.17459632 1.0491818
0.58389276 -0.17562124 1.0472801
0.59512943 -0.17539689 1.0486819
0.60559762 -0.17604008 1.0483848
0.61438507 -0.17531545 1.0445483
0.62526393 -0.17437245 1.0448788
0.63220298 -0.17268258 1.0417501
0.64624953 -0.17520168 1.0403999
0.6506179 -0.17070904 1.04
0.54618108 -0.16069862 1.05
0.55977494 -0.16166961 1.05
0.56268787 -0.16166961 1.05
0.57680261 -0.1644894 1.0479412
0.58432251 -0.16560903 1.0446129
0.59666789 -0.16515602 1.0461819
0.60458487 -0.16543768 1.0444212
0.61436331 -0.16537008 1.0447931
0.62602717 -0.16552916 1.0460478
0.6341399 -0.16468963 1.0443636
0.64369863 -0.16404893 1.0414211
0.65141767 -0.16567998 1.0401249
0.69485795 -0.1649386 1.04
0.54583544 -0.15394463 1.0491177
0.55554569 -0.15426438 1.049
0.5635615 -0.15445277 1.0486112
0.57611459 -0.15379359 1.0474547
0.58556747 -0.15577941 1.0467501
0.59502685 -0.15382405 1.04656
0.60418707 -0.15526867 1.0445311
0.6135 -0.1548536 1.0428932
0.62557817 -0.15377177 1.0443181
0.63401109 -0.15624747 1.0428261
0.64473128 -0.1558059 1.0407693
0.6509307 -0.156359 1.0404999
0.6964879 -0.15932122 1.041
0.53537279 -0.14339091 1.0478573
0.54417074 -0.14532101 1.0473183
0.55404609 -0.14472105 1.0473335
0.56495416 -0.14467317 1.0480001
0.57424277 -0.14516141 1.04664
0.5845753 -0.14621578 1.0491999
0.59628254 -0.14500859 1.0457098
0.60476768 -0.14411809 1.0431579
0.61383504 -0.14511164 1.0428709
0.62496501 -0.14468157 1.0459131
0.63420844 -0.14517824 1.0444688
0.64559746 -0.14697944 1.0403637
0.50879812 -0.13503835 1.0497999
0.51151651 -0.13387316 1.0497999
0.52748084 -0.13732915 1.0495
0.53532326 -0.13564859 1.0487406
0.54367387 -0.1360175 1.0489091
0.55454677 -0.13510655 1.0478847
0.5661487 -0.13532737 1.047739
0.57449275 -0.13499181 1.0481111
0.58505589 -0.13400102 1.0484999
0.59579915 -0.13467506 1.0449666
0.60529155 -0.1343479 1.04144
0.61480194 -0.13374139 1.041
0.62542003 -0.1342122 1.0427599
0.63256758 -0.13580722 1.04275
0.64777792 -0.13121137 1.041
0.70139778 -0.1318547 1.04
0.5083133 -0.12495538 1.0495
0.51505899 -0.1251087 1.0493333
0.52117288 -0.12471217 1.0495
0.53776789 -0.12742984 1.0495001
0.54654378 -0.12538762 1.0485712
0.55494022 -0.1253655 1.0475652
0.56423968 -0.12509872 1.0463215
0.57520074 -0.12530515 1.046926
0.58485371 -0.12541035 1.0459616
0.59430051 -0.12468747 1.0442693
0.60417473 -0.12500115 1.0412632
0.61523461 -0.12523332 1.0430557
0.62529635 -0.12501587 1.0439353
0.63291395 -0.12724647 1.0411112
0.64739287 -0.1285159 1.041
0.52870333 -0.11020721 1.05
0.53246045 -0.11066647 1.04975
0.54528821 -0.11519726 1.0482858
0.55426079 -0.11585775 1.0477407
0.56424594 -0.11573667 1.0481364
0.57488376 -0.11534319 1.0452942
0.58356988 -0.11605179 1.0414445
0.59536916 -0.11551455 1.0425264
0.60442591 -0.11645371 1.0421666
0.61565644 -0.11314483 1.0412858
0.62273061 -0.11691462 1.043
0.63704771 -0.11396428 1.0421875
0.64100045 -0.11204284 1.04
0.50928354 -0.10438128 1.05
0.51413006 -0.10378003 1.0483637
0.52501619 -0.10327803 1.04865
0.53073043 -0.10548683 1.0494
0.54556125 -0.10472549 1.0463332
0.55532837 -0.10532791 1.046793
0.56494516 -0.10432625 1.0468669
0.57527125 -0.10502024 1.0448
0.58337516 -0.10424872 1.0414376
0.59303886 -0.10421654 1.0414286
0.60640198 -0.10326423 1.0407001
0.61432505 -0.10507822 1.0404286
0.62626392 -0.1031726 1.0410833
0.63594222 -0.10519153 1.0413046
0.64100045 -0.10723413 1.04
0.27695325 -0.095551297 1.049
0.48921642 -0.091434754 1.05
0.49277672 -0.092729412 1.05
0.50572693 -0.092421629 1.0483334
0.51410979 -0.094678111 1.0482917
0.52508229 -0.09667214 1.049143
0.53504407 -0.094055995 1.0489615
0.54441667 -0.094553247 1.0470386
0.55664933 -0.094410069 1.047923
0.56492889 -0.0943624 1.0446956
0.57553965 -0.09432365 1.049
0.58389235 -0.095190704 1.0430477
0.59487891 -0.0943854 1.0418847
0.60407662 -0.095572561 1.0413872
0.61454779 -0.095148601 1.0413077
0.62415177 -0.097910948 1.0431334
0.63564795 -0.097603954 1.0410589
0.47303331 -0.081724875 1.05
0.50531125 -0.085406266 1.0486666
0.51311886 -0.08417625 1.0499001
0.52845091 -0.082980916 1.0495
0.53457713 -0.084801167 1.048923
0.54489166 -0.084846206 1.0464412
0.55484003 -0.084175877 1.0428889
0.56535596 -0.084494583 1.0441667
0.57480079 -0.085153826 1.0443751
0.58589751 -0.085039392 1.0405626
0.59486222 -0.084442578 1.0417309
0.60361928 -0.084758632 1.04155
0.61214823 -0.087999307 1.04
0.6333065 -0.080305383 1.04
0.45814478 -0.073956966 1.05
0.47335696 -0.079135567 1.05
0.48695078 -0.071367659 1.05
0.50679922 -0.075353205 1.0498235
0.5119803 -0.075452283 1.0497777
0.52717131 -0.074482799 1.04735
0.5344547 -0.07517349 1.0453913
0.54539335 -0.074924797 1.0454544
0.5545699 -0.074874431 1.0424348
0.56544089 -0.074917354 1.0454001
0.57469767 -0.074672036 1.0439259
0.58409703 -0.073131837 1.0419501
0.59570956 -0.075351462 1.0413126
0.60547745 -0.074623987 1.0431378
0.61469257 -0.073646687 1.0410502
0.62467343 -0.073356479 1.0425882
0.48776689 -0.069403641 1.0496666
0.50799972 -0.066243254 1.0479286
0.51448053 -0.064666592 1.0480554
0.52484912 -0.065221667 1.0458437
0.53484386 -0.065422155 1.046389
0.5451315 -0.065395363 1.0487585
0.55495143 -0.064937398 1.0452905
0.56593043 -0.065569781 1.0463915
0.57483512 -0.064958774 1.0437332
0.58495724 -0.065409236 1.04125
0.59568745 -0.064024217 1.0411112
0.60578722 -0.065491803 1.0429599
0.61486745 -0.064133517 1.0411667
0.62458789 -0.066463277 1.0426428
0.63262701 -0.067296587 1.0411
0.46461806 -0.050005913 1.05
0.48749259 -0.054440312 1.0490769
0.49538869 -0.055433858 1.0488261
0.5056445 -0.053680826 1.0497
0.51617473 -0.054999962 1.0484838
0.52489656 -0.055682778 1.0456086
0.53529292 -0.055500783 1.0487273
0.54476976 -0.05550155 1.0447941
0.55482465 -0.055379346 1.0415183
0.56576568 -0.055074338 1.0432917
0.57337588 -0.055370852 1.0412858
0.58835918 -0.05606864 1.040875
0.59321439 -0.055328697 1.0405294
0.60830128 -0.057223596 1.04
0.61374092 -0.056351777 1.0405884
0.622042 -0.057279855 1.041
0.46435305 -0.04541545 1.0497143
0.47821191 -0.040296026 1.05
0.48681086 -0.043195255 1.0497
0.49456161 -0.045546561 1.0483704
0.50490212 -0.045027062 1.0479262
0.5151788 -0.044499807 1.0479653
0.52539819 -0.044934794 1.0462221
0.53542906 -0.045191452 1.0464401
0.54415268 -0.044951677 1.0454063
0.55495864 -0.044960517 1.0455587
0.56511021 -0.045372602 1.0446668
0.57465225 -0.045063142 1.044484
0.58478212 -0.04509595 1.0430573
0.59358096 -0.048362747 1.0407499
0.61407173 -0.048247349 1.04
0.62599802 -0.045740791 1.0413158
0.28180358 -0.030557014 1.049
0.44228533 -0.030586142 1.05
0.46657741 -0.034240246 1.0495554
0.47447655 -0.033906125 1.0497143
0.48323822 -0.035383962 1.0500001
0.49631718 -0.033269923 1.0488667
0.50513029 -0.034386698 1.0474335
0.51416391 -0.034222908 1.0424643
0.52514023 -0.034468286 1.044381
0.53533381 -0.033849832 1.0457499
0.54492414 -0.034384567 1.0432413
0.55491304 -0.034926057 1.04276
0.56543183 -0.03369642 1.0438519
